ncols 469
nrows 42
xllcorner -169.133333
yllcorner 42.41108
cellsize 0.249840
NODATA_value -9999
-9999 -9999 -9999 -9999 -9999 -9999 -9999 -9999 -9999 -9999 -9999 -9999 -9999 -9999 -9999 -9999 -9999 -9999 -9999 -9999 -9999 -9999 -9999 -9999 -9999 -9999 -9999 -9999 -9999 -9999 -9999 -9999 -9999 -9999 -9999 -9999 -9999 -9999 -9999 -9999 -9999 -9999 -9999 -9999 -9999 -9999 -9999 -9999 -9999 -9999 -9999 -9999 -9999 -9999 -9999 -9999 -9999 -9999 -9999 -9999 -9999 -9999 -9999 -9999 -9999 -9999 -9999 -9999 -9999 -9999 -9999 -9999 -9999 -9999 -9999 -9999 -9999 -9999 -9999 -9999 -9999 -9999 -9999 -9999 -9999 -9999 -9999 -9999 -9999 -9999 -9999 -9999 -9999 -9999 -9999 -9999 -9999 -9999 -9999 -9999 -9999 -9999 -9999 -9999 -9999 -9999 -9999 -9999 -9999 -9999 -9999 -9999 -9999 -9999 -9999 -9999 -9999 -9999 -9999 -9999 -9999 -9999 -9999 -9999 -9999 -9999 -9999 -9999 -9999 -9999 -9999 -9999 -9999 -9999 -9999 -9999 -9999 -9999 -9999 -9999 -9999 -9999 -9999 -9999 -9999 -9999 -9999 230 225 237 -9999 -9999 -9999 -9999 -9999 -9999 -9999 -9999 -9999 -9999 143 -9999 208 274 358 405 472 405 594 478 374 176 217 355 133 289 193 181 60 96 97 114 118 98 108 135 155 181 126 123 213 338 253 426 390 402 391 437 506 464 459 373 352 392 436 325 283 272 278 116 129 96 58 47 50 61 46 37 29 25 36 16 24 15 22 32 19 7 9 15 22 28 27 20 26 27 28 31 27 39 42 42 43 28 17 28 43 53 46 16 22 4 18 29 25 33 36 23 24 25 28 31 16 20 28 32 23 18 32 65 177 -9999 21 -9999 7 -9999 -9999 -9999 -9999 -9999 11 -9999 -9999 -9999 -9999 -9999 -9999 6 5 5 9 7 8 8 6 9 8 11 12 12 16 19 20 13 15 16 10 12 12 -9999 28 -9999 16 6 9 7 9 13 14 16 13 11 10 13 15 18 16 9 7 5 5 6 5 7 13 12 8 13 13 7 5 6 6 5 4 4 4 4 -9999 -9999 12 11 5 5 -9999 -9999 -9999 -9999 -9999 -9999 -9999 -9999 15 17 23 26 30 28 17 21 16 23 20 27 26 30 28 23 26 30 29 25 -9999 40 33 26 22 27 43 41 38 18 20 15 -9999 24 37 43 38 44 35 31 52 40 33 40 29 60 51 34 45 19 17 21 22 9 29 33 7 30 35 35 32 49 34 36 51 49 85 91 85 41 36 39 40 53 74 18 28 45 31 16 39 52 19 32 20 12 31 45 35 50 56 26 -9999 -9999 -9999 -9999 -9999 -9999 -9999 -9999 -9999 -9999 -9999 -9999 -9999 -9999 -9999
-9999 -9999 -9999 -9999 -9999 -9999 -9999 -9999 -9999 -9999 -9999 -9999 -9999 -9999 -9999 -9999 -9999 -9999 -9999 -9999 -9999 -9999 -9999 -9999 -9999 -9999 -9999 -9999 -9999 -9999 -9999 -9999 -9999 -9999 -9999 -9999 -9999 -9999 -9999 -9999 -9999 -9999 -9999 -9999 -9999 -9999 -9999 -9999 -9999 -9999 -9999 -9999 -9999 -9999 -9999 -9999 -9999 -9999 -9999 -9999 -9999 -9999 -9999 -9999 -9999 -9999 -9999 -9999 -9999 -9999 -9999 -9999 -9999 -9999 -9999 -9999 -9999 -9999 -9999 -9999 -9999 -9999 -9999 -9999 -9999 -9999 -9999 -9999 -9999 -9999 -9999 -9999 -9999 -9999 -9999 -9999 -9999 -9999 -9999 -9999 -9999 -9999 -9999 -9999 -9999 -9999 -9999 -9999 -9999 -9999 -9999 -9999 -9999 -9999 -9999 -9999 -9999 -9999 -9999 -9999 -9999 -9999 -9999 -9999 -9999 -9999 -9999 -9999 -9999 -9999 -9999 -9999 -9999 -9999 -9999 -9999 -9999 -9999 -9999 -9999 -9999 -9999 -9999 -9999 -9999 -9999 -9999 -9999 -9999 240 -9999 -9999 -9999 -9999 -9999 -9999 -9999 -9999 -9999 -9999 37 75 146 169 210 333 425 -9999 509 448 419 335 185 185 126 197 137 135 64 107 91 96 94 95 71 105 159 158 99 130 140 337 349 418 390 418 417 -9999 441 416 498 478 359 291 410 454 359 284 302 321 215 159 146 91 63 43 38 40 37 36 -9999 32 36 28 24 15 21 17 13 11 29 40 20 18 20 22 37 22 30 36 18 19 42 75 89 43 22 21 23 25 7 12 23 26 14 28 18 13 17 16 16 11 36 44 46 40 41 48 86 58 26 41 116 11 11 6 7 -9999 5 5 6 10 -9999 -9999 -9999 -9999 -9999 -9999 4 5 5 8 9 8 6 8 6 10 17 15 17 15 12 13 10 13 18 12 15 8 -9999 21 18 20 23 26 15 10 9 13 14 12 13 11 10 8 9 11 9 7 6 5 7 5 4 11 16 8 5 8 10 9 3 6 6 4 3 3 3 3 -9999 -9999 -9999 -9999 -9999 -9999 -9999 -9999 -9999 -9999 -9999 -9999 11 14 17 17 18 22 19 21 11 20 31 37 24 24 34 28 22 24 27 23 31 28 -9999 16 26 12 15 21 27 29 16 46 79 93 31 41 39 36 31 33 37 36 33 30 46 49 42 35 22 13 9 10 20 28 30 14 20 -9999 69 57 48 27 20 39 28 36 36 39 42 52 56 37 29 48 45 25 29 33 21 37 23 27 17 35 29 20 54 45 56 -9999 -9999 -9999 -9999 -9999 -9999 -9999 -9999 -9999 -9999 -9999 -9999 -9999 -9999 -9999 -9999 -9999 -9999
-9999 -9999 -9999 -9999 -9999 -9999 -9999 -9999 -9999 -9999 -9999 -9999 -9999 -9999 -9999 -9999 -9999 -9999 -9999 -9999 -9999 -9999 -9999 -9999 -9999 -9999 -9999 -9999 -9999 -9999 -9999 -9999 -9999 -9999 -9999 -9999 -9999 -9999 -9999 -9999 -9999 -9999 -9999 -9999 -9999 -9999 -9999 -9999 -9999 -9999 -9999 -9999 -9999 -9999 -9999 -9999 -9999 -9999 -9999 -9999 -9999 -9999 -9999 -9999 -9999 -9999 -9999 -9999 -9999 -9999 -9999 -9999 -9999 -9999 -9999 -9999 -9999 -9999 -9999 -9999 -9999 -9999 -9999 -9999 -9999 -9999 -9999 -9999 -9999 -9999 -9999 -9999 -9999 -9999 -9999 -9999 -9999 -9999 -9999 -9999 -9999 -9999 -9999 -9999 -9999 -9999 -9999 -9999 -9999 -9999 -9999 -9999 -9999 -9999 -9999 -9999 -9999 -9999 -9999 -9999 -9999 -9999 -9999 -9999 -9999 -9999 -9999 -9999 -9999 -9999 -9999 -9999 -9999 -9999 -9999 -9999 -9999 -9999 -9999 -9999 -9999 -9999 -9999 -9999 -9999 -9999 -9999 -9999 -9999 -9999 -9999 -9999 -9999 -9999 -9999 -9999 -9999 -9999 -9999 -9999 -9999 32 -9999 137 195 290 338 -9999 515 540 609 603 553 340 299 103 70 82 97 58 58 57 56 58 59 72 45 170 75 110 90 188 231 284 307 385 423 324 -9999 411 494 503 476 382 -9999 437 439 393 297 259 356 288 181 163 136 94 47 22 22 27 31 31 40 30 32 12 26 30 40 43 27 26 28 24 14 18 18 28 19 23 30 10 15 21 21 49 31 20 17 8 12 21 28 23 12 13 18 12 6 7 3 6 26 16 29 27 25 31 37 41 92 135 30 26 21 7 -9999 -9999 5 7 7 10 6 -9999 -9999 -9999 -9999 -9999 -9999 5 7 7 7 8 7 7 6 8 10 13 12 12 15 15 17 13 15 15 14 17 19 13 11 12 13 11 8 7 6 7 9 12 9 10 12 11 10 6 4 8 6 4 6 3 3 3 8 11 7 6 9 6 7 3 5 6 9 9 6 4 -9999 -9999 -9999 -9999 -9999 -9999 -9999 -9999 -9999 -9999 -9999 -9999 -9999 22 23 25 16 19 17 20 -9999 -9999 32 31 26 16 24 24 28 26 24 28 31 22 25 35 26 27 70 89 100 80 70 85 71 77 48 44 65 50 57 62 60 45 43 44 40 41 41 65 45 34 18 28 58 66 32 55 93 69 22 32 31 16 20 46 55 51 30 51 58 61 47 38 32 29 41 9 37 20 21 27 34 13 53 37 18 25 11 47 54 68 -9999 28 -9999 -9999 -9999 -9999 -9999 -9999 -9999 -9999 -9999 -9999 -9999 -9999 -9999 -9999 -9999
-9999 -9999 -9999 -9999 -9999 -9999 -9999 -9999 -9999 -9999 -9999 -9999 -9999 -9999 -9999 -9999 -9999 -9999 -9999 -9999 -9999 -9999 -9999 -9999 -9999 -9999 -9999 -9999 -9999 -9999 -9999 -9999 -9999 -9999 -9999 -9999 -9999 -9999 -9999 -9999 -9999 -9999 -9999 -9999 -9999 -9999 -9999 -9999 -9999 -9999 -9999 -9999 -9999 -9999 -9999 -9999 -9999 -9999 -9999 -9999 -9999 -9999 -9999 -9999 -9999 -9999 -9999 -9999 -9999 -9999 -9999 -9999 -9999 -9999 -9999 -9999 -9999 -9999 -9999 -9999 -9999 -9999 -9999 -9999 -9999 -9999 -9999 -9999 -9999 -9999 -9999 -9999 -9999 -9999 -9999 -9999 -9999 -9999 -9999 -9999 -9999 -9999 -9999 -9999 -9999 -9999 -9999 -9999 -9999 -9999 -9999 -9999 -9999 -9999 -9999 -9999 -9999 -9999 -9999 -9999 -9999 -9999 -9999 -9999 -9999 -9999 -9999 -9999 -9999 -9999 -9999 -9999 -9999 -9999 -9999 -9999 -9999 -9999 -9999 -9999 -9999 -9999 -9999 -9999 -9999 -9999 -9999 -9999 -9999 -9999 -9999 -9999 -9999 -9999 -9999 -9999 -9999 -9999 -9999 -9999 -9999 -9999 -9999 30 -9999 265 -9999 392 419 -9999 551 -9999 545 535 255 326 149 128 125 102 119 81 109 131 156 73 98 161 117 95 45 133 263 221 341 372 312 276 273 413 438 446 481 543 508 528 -9999 535 409 417 407 342 221 201 118 112 67 63 46 24 23 34 27 27 42 31 13 14 -9999 9 14 17 21 26 39 40 31 30 20 15 13 18 18 23 21 39 13 14 11 12 17 15 18 16 10 8 12 14 13 16 10 6 16 14 17 22 19 12 44 52 35 33 103 119 19 20 -9999 -9999 -9999 7 4 8 6 5 -9999 -9999 6 -9999 -9999 5 6 7 7 7 -9999 11 11 12 18 16 18 14 11 12 13 9 15 12 12 11 15 11 6 13 18 18 14 17 13 9 8 16 14 11 19 15 10 9 6 9 10 5 5 6 7 5 14 8 9 10 8 3 5 4 3 3 5 6 7 5 7 7 -9999 -9999 -9999 -9999 -9999 -9999 -9999 14 -9999 -9999 8 14 21 31 26 21 12 15 11 26 17 17 17 21 24 25 22 20 26 19 22 20 21 32 68 88 59 61 42 42 51 46 48 57 63 51 79 79 61 30 73 58 48 36 32 44 28 59 52 46 62 57 58 57 29 59 76 32 42 42 36 23 12 26 33 68 69 43 47 57 63 65 50 -9999 38 13 34 62 29 37 32 6 57 51 64 13 16 13 35 17 69 60 -9999 -9999 -9999 -9999 -9999 -9999 -9999 -9999 -9999 -9999 -9999 -9999 -9999 -9999 -9999
-9999 -9999 -9999 -9999 -9999 -9999 -9999 -9999 -9999 -9999 -9999 -9999 -9999 -9999 -9999 -9999 -9999 -9999 -9999 -9999 -9999 -9999 -9999 -9999 -9999 -9999 -9999 -9999 -9999 -9999 -9999 -9999 -9999 -9999 -9999 -9999 -9999 -9999 -9999 -9999 -9999 -9999 -9999 -9999 -9999 -9999 -9999 -9999 -9999 -9999 -9999 -9999 -9999 -9999 -9999 -9999 -9999 -9999 -9999 -9999 -9999 -9999 -9999 -9999 -9999 -9999 -9999 -9999 -9999 -9999 -9999 -9999 -9999 -9999 -9999 -9999 -9999 -9999 -9999 -9999 -9999 -9999 -9999 -9999 -9999 -9999 -9999 -9999 -9999 -9999 -9999 -9999 -9999 -9999 -9999 -9999 -9999 -9999 -9999 -9999 -9999 -9999 -9999 -9999 -9999 -9999 -9999 -9999 -9999 -9999 -9999 -9999 -9999 -9999 -9999 -9999 -9999 -9999 -9999 -9999 -9999 -9999 -9999 -9999 -9999 -9999 -9999 -9999 -9999 -9999 -9999 -9999 -9999 -9999 -9999 -9999 -9999 -9999 -9999 -9999 -9999 -9999 -9999 -9999 -9999 -9999 -9999 -9999 -9999 -9999 -9999 -9999 -9999 -9999 -9999 -9999 -9999 -9999 -9999 -9999 -9999 -9999 -9999 -9999 55 238 315 405 418 493 520 580 -9999 524 492 488 364 384 385 178 74 84 79 113 166 150 238 227 75 89 77 161 108 177 251 296 382 372 283 384 530 447 465 448 544 -9999 569 522 -9999 420 310 318 275 306 228 138 85 55 43 31 22 24 30 26 49 16 13 16 23 20 7 6 11 18 47 23 17 19 12 13 15 26 38 34 38 21 12 8 5 17 22 49 42 14 13 12 6 6 8 -9999 -9999 15 8 19 21 19 11 12 19 56 73 81 38 68 56 16 -9999 -9999 5 5 7 8 6 5 11 -9999 5 5 -9999 -9999 5 8 8 7 8 8 11 9 11 14 18 13 15 16 17 11 13 10 8 12 11 10 12 13 17 20 14 8 10 19 14 22 18 17 9 14 13 13 8 7 7 6 6 5 7 5 6 13 12 8 5 4 3 3 6 7 5 5 5 7 9 8 8 -9999 -9999 -9999 -9999 -9999 -9999 -9999 -9999 -9999 18 13 22 23 16 -9999 14 13 14 28 33 18 12 11 17 22 25 13 14 18 19 18 56 114 48 54 75 68 53 54 40 49 75 50 59 66 47 68 79 88 81 69 116 187 93 163 154 59 87 79 43 54 31 43 84 99 58 78 62 51 37 41 40 45 45 56 112 76 65 51 32 38 53 40 40 19 25 70 64 81 64 63 81 64 107 40 7 70 76 64 120 -9999 -9999 -9999 -9999 -9999 -9999 -9999 -9999 -9999 -9999 -9999 -9999 -9999 -9999 -9999 -9999
-9999 -9999 -9999 -9999 -9999 -9999 -9999 -9999 -9999 -9999 -9999 -9999 -9999 -9999 -9999 -9999 -9999 -9999 -9999 -9999 -9999 -9999 -9999 -9999 -9999 -9999 -9999 -9999 -9999 -9999 -9999 -9999 -9999 -9999 -9999 -9999 -9999 -9999 -9999 -9999 -9999 -9999 -9999 -9999 -9999 -9999 -9999 -9999 -9999 -9999 -9999 -9999 -9999 -9999 -9999 -9999 -9999 -9999 -9999 -9999 -9999 -9999 -9999 -9999 -9999 -9999 -9999 -9999 -9999 -9999 -9999 -9999 -9999 -9999 -9999 -9999 -9999 -9999 -9999 -9999 -9999 -9999 -9999 -9999 -9999 -9999 -9999 -9999 -9999 -9999 -9999 -9999 -9999 -9999 -9999 -9999 -9999 -9999 -9999 -9999 -9999 -9999 -9999 -9999 -9999 -9999 -9999 -9999 -9999 -9999 -9999 -9999 -9999 -9999 -9999 -9999 -9999 -9999 -9999 -9999 -9999 -9999 -9999 -9999 -9999 -9999 -9999 -9999 -9999 -9999 -9999 -9999 -9999 -9999 -9999 -9999 -9999 -9999 -9999 -9999 -9999 -9999 -9999 -9999 -9999 -9999 -9999 -9999 -9999 -9999 -9999 -9999 -9999 -9999 -9999 -9999 -9999 -9999 -9999 -9999 -9999 -9999 -9999 -9999 175 90 -9999 382 445 520 503 444 -9999 -9999 595 375 512 405 480 338 290 140 132 124 152 168 184 237 160 47 44 90 60 88 155 279 548 439 371 383 399 438 499 467 434 -9999 509 434 493 419 378 333 -9999 270 260 161 113 71 58 40 45 24 25 30 34 45 32 60 53 19 15 13 13 19 28 26 23 15 16 13 13 15 24 38 22 9 11 17 15 22 21 28 14 32 34 10 10 8 34 17 15 26 33 33 17 12 4 9 23 64 41 32 23 31 105 16 11 6 -9999 5 -9999 -9999 -9999 17 13 7 4 5 5 6 7 7 9 9 10 9 11 10 12 -9999 24 26 17 19 21 16 13 13 12 9 9 10 9 9 10 11 15 18 12 9 26 25 19 14 13 16 11 9 8 11 7 7 6 4 4 7 8 4 9 8 5 5 4 6 6 7 9 9 9 4 5 4 5 6 5 -9999 -9999 -9999 -9999 13 -9999 -9999 11 14 13 19 21 19 12 -9999 17 25 24 24 31 30 27 26 26 31 25 27 39 25 88 94 62 52 63 59 31 32 52 65 62 46 32 41 62 54 -9999 84 100 -9999 165 128 119 121 153 84 58 128 58 42 42 40 80 126 96 72 64 63 49 52 39 64 93 77 110 125 106 47 52 54 31 55 53 28 63 62 69 82 76 69 70 93 82 89 86 89 -9999 -9999 -9999 -9999 2 -9999 -9999 -9999 -9999 -9999 -9999 -9999 -9999 -9999 -9999 -9999 -9999 -9999 -9999
-9999 -9999 -9999 -9999 -9999 -9999 -9999 -9999 -9999 -9999 -9999 -9999 -9999 -9999 -9999 -9999 -9999 -9999 -9999 -9999 -9999 -9999 -9999 -9999 -9999 -9999 -9999 -9999 -9999 -9999 -9999 -9999 -9999 -9999 -9999 -9999 -9999 -9999 -9999 -9999 -9999 -9999 -9999 -9999 -9999 -9999 -9999 -9999 -9999 -9999 -9999 -9999 -9999 -9999 -9999 -9999 -9999 -9999 -9999 -9999 -9999 -9999 -9999 -9999 -9999 -9999 -9999 -9999 -9999 -9999 -9999 -9999 -9999 -9999 -9999 -9999 -9999 -9999 -9999 -9999 -9999 -9999 -9999 -9999 -9999 -9999 -9999 -9999 -9999 -9999 -9999 -9999 -9999 -9999 -9999 -9999 -9999 -9999 -9999 -9999 -9999 -9999 -9999 -9999 -9999 -9999 -9999 -9999 -9999 -9999 -9999 -9999 -9999 -9999 -9999 -9999 -9999 -9999 -9999 -9999 -9999 -9999 -9999 -9999 -9999 -9999 -9999 -9999 -9999 -9999 -9999 -9999 -9999 -9999 -9999 -9999 -9999 -9999 -9999 -9999 -9999 -9999 -9999 -9999 -9999 -9999 -9999 -9999 -9999 -9999 -9999 -9999 -9999 -9999 -9999 -9999 -9999 -9999 -9999 -9999 -9999 -9999 -9999 -9999 -9999 -9999 174 283 396 383 -9999 474 -9999 559 607 -9999 569 578 524 393 385 304 319 281 194 153 236 420 203 233 23 55 76 93 146 331 504 380 432 439 444 471 514 -9999 466 413 480 378 520 445 449 361 383 348 360 296 128 87 59 43 38 47 15 28 27 49 83 74 38 22 19 16 23 17 18 19 28 25 24 23 20 15 25 19 16 12 36 43 59 24 11 18 9 23 47 8 9 13 22 36 17 9 6 15 37 15 14 12 5 21 35 32 59 94 59 20 12 -9999 4 6 -9999 -9999 6 8 8 11 6 8 5 -9999 -9999 9 9 7 8 8 10 13 18 18 13 18 18 13 15 13 14 12 11 -9999 9 10 9 7 9 10 8 11 18 12 16 16 14 11 11 19 13 10 8 7 9 9 4 2 9 11 12 15 12 10 7 7 8 3 8 5 6 10 8 4 5 4 4 5 5 -9999 -9999 -9999 7 6 8 -9999 11 19 28 30 22 16 17 19 24 22 31 25 14 21 16 25 20 24 18 28 40 16 33 16 39 33 61 44 41 35 20 63 101 123 55 63 36 49 84 80 115 56 122 124 115 90 125 87 75 144 91 69 76 63 77 159 190 122 92 75 89 100 62 61 112 92 115 115 110 64 80 81 50 41 40 62 64 47 39 48 60 57 -9999 35 -9999 -9999 -9999 -9999 -9999 22 12 77 63 -9999 -9999 -9999 -9999 -9999 -9999 -9999 -9999 -9999 -9999 -9999 -9999 -9999 -9999
-9999 -9999 -9999 -9999 -9999 -9999 -9999 -9999 -9999 -9999 -9999 -9999 -9999 -9999 -9999 -9999 -9999 -9999 -9999 -9999 -9999 -9999 -9999 -9999 -9999 -9999 -9999 -9999 -9999 -9999 -9999 -9999 -9999 -9999 -9999 -9999 -9999 -9999 -9999 -9999 -9999 -9999 -9999 -9999 -9999 -9999 -9999 -9999 -9999 -9999 -9999 -9999 -9999 -9999 -9999 -9999 -9999 -9999 -9999 -9999 -9999 -9999 -9999 -9999 -9999 -9999 -9999 -9999 -9999 -9999 -9999 -9999 -9999 -9999 -9999 -9999 -9999 -9999 -9999 -9999 -9999 -9999 -9999 -9999 -9999 -9999 -9999 -9999 -9999 -9999 -9999 -9999 -9999 -9999 -9999 -9999 -9999 -9999 -9999 -9999 -9999 -9999 -9999 -9999 -9999 -9999 -9999 -9999 -9999 -9999 -9999 -9999 -9999 -9999 -9999 -9999 -9999 -9999 -9999 -9999 -9999 -9999 -9999 -9999 -9999 -9999 -9999 -9999 -9999 -9999 -9999 -9999 -9999 -9999 -9999 -9999 -9999 -9999 -9999 -9999 -9999 -9999 -9999 -9999 -9999 -9999 -9999 -9999 -9999 -9999 -9999 -9999 -9999 -9999 -9999 -9999 -9999 -9999 -9999 -9999 -9999 -9999 -9999 -9999 -9999 -9999 -9999 218 -9999 377 436 440 473 477 634 -9999 680 562 -9999 -9999 364 312 349 236 263 257 290 255 448 337 276 205 183 130 147 346 332 368 439 457 495 508 453 488 478 -9999 540 -9999 -9999 437 432 437 407 333 377 383 272 188 61 53 43 27 27 30 33 33 37 43 34 18 15 17 44 27 30 39 56 51 37 30 38 33 29 47 36 65 27 41 42 14 -9999 18 19 20 25 12 16 27 13 33 19 19 10 19 21 17 10 6 5 5 23 46 39 63 65 69 117 46 12 8 11 4 -9999 10 4 11 9 9 5 -9999 -9999 8 10 14 12 9 12 13 18 18 21 17 22 21 13 12 13 16 13 14 11 11 10 -9999 10 8 10 12 12 15 15 17 19 17 17 15 20 15 21 14 9 9 8 4 4 7 9 10 10 4 6 4 5 10 13 12 4 6 6 8 3 3 5 5 6 10 8 7 6 15 24 23 14 23 17 18 23 15 13 14 26 19 22 29 14 32 28 18 30 21 13 7 -9999 -9999 26 45 67 55 45 35 46 53 46 40 53 115 83 126 123 83 66 91 105 135 96 -9999 102 80 124 100 149 131 82 141 89 164 104 161 149 145 157 89 96 126 77 85 81 76 80 100 87 84 63 70 68 69 64 64 41 33 55 43 -9999 -9999 -9999 -9999 -9999 -9999 -9999 -9999 50 41 34 35 -9999 -9999 -9999 -9999 -9999 -9999 -9999 -9999 -9999 -9999 -9999 -9999 -9999 -9999 -9999
-9999 -9999 -9999 -9999 -9999 -9999 -9999 -9999 -9999 -9999 -9999 -9999 -9999 -9999 -9999 -9999 -9999 -9999 -9999 -9999 -9999 -9999 -9999 -9999 -9999 -9999 -9999 -9999 -9999 -9999 -9999 -9999 -9999 -9999 -9999 -9999 -9999 -9999 -9999 -9999 -9999 -9999 -9999 -9999 -9999 -9999 -9999 -9999 -9999 -9999 -9999 -9999 -9999 -9999 -9999 -9999 -9999 -9999 -9999 -9999 -9999 -9999 -9999 -9999 -9999 -9999 -9999 -9999 -9999 -9999 -9999 -9999 -9999 -9999 -9999 -9999 -9999 -9999 -9999 -9999 -9999 -9999 -9999 -9999 -9999 -9999 -9999 -9999 -9999 -9999 -9999 -9999 -9999 -9999 -9999 -9999 -9999 -9999 -9999 -9999 -9999 -9999 -9999 -9999 -9999 -9999 -9999 -9999 -9999 -9999 -9999 -9999 -9999 -9999 -9999 -9999 -9999 -9999 -9999 -9999 -9999 -9999 -9999 -9999 -9999 -9999 -9999 -9999 -9999 -9999 -9999 -9999 -9999 -9999 -9999 -9999 -9999 -9999 -9999 -9999 -9999 -9999 -9999 -9999 -9999 -9999 -9999 -9999 -9999 -9999 -9999 -9999 -9999 -9999 -9999 -9999 -9999 -9999 -9999 -9999 -9999 -9999 -9999 -9999 -9999 -9999 -9999 37 -9999 190 -9999 -9999 415 428 -9999 464 519 736 715 586 479 -9999 392 423 465 512 518 546 495 487 288 376 354 312 392 263 265 398 388 331 477 463 502 452 535 523 513 462 458 370 533 460 421 393 324 318 307 215 112 60 58 35 37 31 36 38 32 18 19 26 27 40 46 68 44 44 46 39 25 18 21 37 34 35 28 50 34 51 54 42 23 14 28 24 19 18 19 23 43 36 32 41 40 16 17 8 5 6 7 9 24 35 37 40 23 19 38 132 96 6 9 11 4 5 8 5 7 12 10 -9999 -9999 -9999 9 11 13 11 12 12 17 21 23 19 19 18 14 16 14 18 16 12 17 14 14 16 11 12 10 13 14 19 17 19 19 14 14 14 16 14 10 9 8 13 11 8 6 3 10 14 12 5 3 5 17 16 12 16 10 8 9 4 4 6 8 14 27 42 37 24 13 20 13 22 29 24 18 17 11 10 -9999 19 15 15 24 26 23 26 20 34 19 11 10 7 -9999 38 39 47 27 39 35 35 40 44 35 49 39 76 71 67 129 104 89 83 84 124 92 -9999 77 100 89 112 150 184 166 132 77 177 162 125 134 99 141 102 101 75 91 77 67 62 65 72 71 63 67 63 59 -9999 56 44 62 45 39 -9999 -9999 -9999 -9999 -9999 -9999 -9999 -9999 110 35 102 85 -9999 -9999 -9999 -9999 -9999 -9999 -9999 -9999 -9999 -9999 -9999 -9999 -9999 -9999 -9999 -9999
-9999 -9999 -9999 -9999 -9999 -9999 -9999 -9999 -9999 -9999 -9999 -9999 -9999 -9999 -9999 -9999 -9999 -9999 -9999 -9999 -9999 -9999 -9999 -9999 -9999 -9999 -9999 -9999 -9999 -9999 -9999 -9999 -9999 -9999 -9999 -9999 -9999 -9999 -9999 -9999 -9999 -9999 -9999 -9999 -9999 -9999 -9999 -9999 -9999 -9999 -9999 -9999 -9999 -9999 -9999 -9999 -9999 -9999 -9999 -9999 -9999 -9999 -9999 -9999 -9999 -9999 -9999 -9999 -9999 -9999 -9999 -9999 -9999 -9999 -9999 -9999 -9999 -9999 -9999 -9999 -9999 -9999 -9999 -9999 -9999 -9999 -9999 -9999 -9999 -9999 -9999 -9999 -9999 -9999 -9999 -9999 -9999 -9999 -9999 -9999 -9999 -9999 -9999 -9999 -9999 -9999 -9999 -9999 -9999 -9999 -9999 -9999 -9999 -9999 -9999 -9999 -9999 -9999 -9999 -9999 -9999 -9999 -9999 -9999 -9999 -9999 -9999 -9999 -9999 -9999 -9999 -9999 -9999 -9999 -9999 -9999 -9999 -9999 -9999 -9999 -9999 -9999 -9999 -9999 -9999 -9999 -9999 -9999 -9999 -9999 -9999 -9999 -9999 -9999 -9999 -9999 -9999 -9999 -9999 -9999 -9999 -9999 -9999 87 142 183 -9999 293 290 -9999 -9999 -9999 239 303 -9999 453 515 494 525 608 642 365 466 594 602 437 572 526 614 607 238 383 175 156 318 244 361 276 331 260 455 372 392 441 602 549 442 466 559 474 401 532 401 407 438 380 303 259 192 66 51 23 27 39 67 39 41 21 10 11 10 22 14 35 38 45 23 14 17 10 8 14 25 41 55 56 69 40 23 34 34 33 16 12 18 21 19 19 28 23 27 32 37 37 37 37 40 39 45 31 22 42 15 22 25 18 11 24 144 14 8 5 -9999 -9999 4 4 6 5 12 -9999 19 12 11 9 11 14 13 17 20 24 24 21 18 13 17 22 23 22 18 17 21 15 13 22 21 9 15 14 13 17 15 19 18 17 17 14 19 13 20 21 22 15 14 8 7 9 7 6 18 4 9 10 9 8 4 16 13 6 8 7 7 15 26 38 41 35 42 44 48 37 19 27 19 14 8 12 17 17 14 17 14 28 32 23 24 23 44 34 36 36 35 26 25 25 28 42 46 38 67 57 46 72 59 61 35 27 96 53 75 100 93 84 85 77 77 117 -9999 150 118 93 160 139 157 104 129 117 92 126 87 90 83 91 89 70 58 48 44 49 53 43 39 34 35 41 46 45 45 49 3 -9999 -9999 -9999 -9999 -9999 -9999 -9999 -9999 19 91 33 49 74 -9999 -9999 -9999 -9999 -9999 -9999 -9999 -9999 -9999 -9999 -9999 -9999 -9999 -9999 -9999 -9999 -9999
-9999 -9999 -9999 -9999 -9999 -9999 -9999 -9999 -9999 -9999 -9999 -9999 -9999 -9999 -9999 -9999 -9999 -9999 -9999 -9999 -9999 -9999 -9999 -9999 -9999 -9999 -9999 -9999 -9999 -9999 -9999 -9999 -9999 -9999 -9999 -9999 -9999 -9999 -9999 -9999 -9999 -9999 -9999 -9999 -9999 -9999 -9999 -9999 -9999 -9999 -9999 -9999 -9999 -9999 -9999 -9999 -9999 -9999 -9999 -9999 -9999 -9999 -9999 -9999 -9999 -9999 -9999 -9999 -9999 -9999 -9999 -9999 -9999 -9999 -9999 -9999 -9999 -9999 -9999 -9999 -9999 -9999 -9999 -9999 -9999 -9999 -9999 -9999 -9999 -9999 -9999 -9999 -9999 -9999 -9999 -9999 -9999 -9999 -9999 -9999 -9999 -9999 -9999 -9999 -9999 -9999 -9999 -9999 -9999 -9999 -9999 -9999 -9999 -9999 -9999 -9999 -9999 -9999 -9999 -9999 -9999 -9999 -9999 -9999 -9999 -9999 -9999 -9999 -9999 -9999 -9999 -9999 -9999 -9999 -9999 -9999 -9999 -9999 -9999 -9999 -9999 -9999 -9999 -9999 -9999 -9999 -9999 -9999 -9999 -9999 -9999 -9999 -9999 -9999 -9999 -9999 -9999 -9999 -9999 -9999 -9999 -9999 -9999 -9999 -9999 213 263 309 333 340 355 373 286 -9999 -9999 -9999 305 466 -9999 476 557 481 548 413 422 600 613 297 399 585 470 362 321 212 277 181 178 252 372 272 345 301 360 349 415 524 318 348 563 518 390 353 463 469 433 324 343 269 245 121 106 86 21 33 31 31 21 19 12 14 5 11 25 25 48 33 18 19 21 15 11 13 21 17 35 35 34 36 31 23 17 22 47 72 27 9 7 7 4 21 30 10 20 32 32 33 19 13 5 23 19 28 32 15 11 19 24 52 93 19 11 4 5 -9999 -9999 6 6 14 4 -9999 13 16 10 13 13 16 22 21 22 22 29 17 19 23 18 19 18 16 -9999 16 17 18 13 18 15 9 14 17 18 14 23 31 35 34 22 14 11 13 20 13 11 12 17 15 8 6 6 7 9 7 12 12 11 8 14 10 11 6 7 15 20 31 27 26 15 7 10 9 13 23 29 31 10 11 11 11 17 12 20 17 15 27 25 31 21 21 15 21 12 37 27 39 25 28 32 54 41 36 91 72 57 65 80 62 67 60 55 73 64 69 91 67 120 74 89 117 109 133 128 101 141 119 90 72 67 47 44 45 55 52 57 52 41 27 -9999 29 26 31 28 30 31 32 33 34 31 33 37 0 -9999 -9999 -9999 -9999 -9999 -9999 -9999 -9999 -9999 86 103 52 115 -9999 -9999 -9999 -9999 -9999 -9999 -9999 -9999 -9999 -9999 -9999 -9999 -9999 -9999 -9999 -9999 -9999 -9999
-9999 -9999 -9999 -9999 -9999 -9999 -9999 -9999 -9999 -9999 -9999 -9999 -9999 -9999 -9999 -9999 -9999 -9999 -9999 -9999 -9999 -9999 -9999 -9999 -9999 -9999 -9999 -9999 -9999 -9999 -9999 -9999 -9999 -9999 -9999 -9999 -9999 -9999 -9999 -9999 -9999 -9999 -9999 -9999 -9999 -9999 -9999 -9999 -9999 -9999 -9999 -9999 -9999 -9999 -9999 -9999 -9999 -9999 -9999 -9999 -9999 -9999 -9999 -9999 -9999 -9999 -9999 -9999 -9999 -9999 -9999 -9999 -9999 -9999 -9999 -9999 -9999 -9999 -9999 -9999 -9999 -9999 -9999 -9999 -9999 -9999 -9999 -9999 -9999 -9999 -9999 -9999 -9999 -9999 -9999 -9999 -9999 -9999 -9999 -9999 -9999 -9999 -9999 -9999 -9999 -9999 -9999 -9999 -9999 -9999 -9999 -9999 -9999 -9999 -9999 -9999 -9999 -9999 -9999 -9999 -9999 -9999 -9999 -9999 -9999 -9999 -9999 -9999 -9999 -9999 -9999 -9999 -9999 -9999 -9999 -9999 -9999 -9999 -9999 -9999 -9999 -9999 -9999 -9999 -9999 -9999 -9999 -9999 -9999 -9999 -9999 -9999 -9999 -9999 -9999 -9999 -9999 -9999 -9999 -9999 -9999 -9999 -9999 -9999 -9999 -9999 -9999 -9999 254 332 343 344 310 299 90 -9999 -9999 -9999 367 445 457 546 498 559 442 448 549 409 437 541 533 251 280 288 190 206 192 149 424 402 218 265 234 279 441 506 513 519 487 612 345 323 406 314 383 367 341 317 214 217 130 106 22 11 32 48 18 21 12 21 17 28 31 32 34 24 21 33 21 25 21 31 59 44 26 30 31 43 39 15 13 27 -9999 -9999 57 63 32 13 3 2 9 16 20 12 18 30 40 21 30 13 22 15 28 29 32 38 39 42 19 20 21 13 11 5 4 8 4 6 2 10 7 21 8 9 14 14 21 23 25 32 42 33 -9999 26 21 22 21 22 14 18 -9999 15 18 18 -9999 10 16 18 33 43 38 43 -9999 -9999 30 16 11 10 9 -9999 13 11 11 18 20 18 19 15 14 18 20 19 12 17 29 27 34 38 35 36 29 19 9 9 10 9 14 14 13 9 10 17 14 8 4 5 11 16 11 14 18 25 25 20 20 17 17 10 17 23 22 28 24 24 37 53 76 46 87 79 59 72 74 93 84 61 67 43 48 66 53 62 118 96 121 103 129 106 77 75 -9999 -9999 -9999 -9999 -9999 -9999 -9999 -9999 -9999 -9999 -9999 -9999 -9999 -9999 -9999 -9999 -9999 -9999 -9999 -9999 -9999 -9999 -9999 -9999 -9999 -9999 -9999 -9999 -9999 -9999 -9999 -9999 -9999 -9999 -9999 -9999 212 150 101 107 -9999 -9999 -9999 -9999 -9999 -9999 -9999 -9999 -9999 -9999 -9999 -9999 -9999 -9999 -9999 -9999 -9999 -9999 -9999
-9999 -9999 -9999 -9999 -9999 -9999 -9999 -9999 -9999 -9999 -9999 -9999 -9999 -9999 -9999 -9999 -9999 -9999 -9999 -9999 -9999 -9999 -9999 -9999 -9999 -9999 -9999 -9999 -9999 -9999 -9999 -9999 -9999 -9999 -9999 -9999 -9999 -9999 -9999 -9999 -9999 -9999 -9999 -9999 -9999 -9999 -9999 -9999 -9999 -9999 -9999 -9999 -9999 -9999 -9999 -9999 -9999 -9999 -9999 -9999 -9999 -9999 -9999 -9999 -9999 -9999 -9999 -9999 -9999 -9999 -9999 -9999 -9999 -9999 -9999 -9999 -9999 -9999 -9999 -9999 -9999 -9999 -9999 -9999 -9999 -9999 -9999 -9999 -9999 -9999 -9999 -9999 -9999 -9999 -9999 -9999 -9999 -9999 -9999 -9999 -9999 -9999 -9999 -9999 -9999 -9999 -9999 -9999 -9999 -9999 -9999 -9999 -9999 -9999 -9999 -9999 -9999 -9999 -9999 -9999 -9999 -9999 -9999 -9999 -9999 -9999 -9999 -9999 -9999 -9999 -9999 -9999 -9999 -9999 -9999 -9999 -9999 -9999 -9999 -9999 -9999 -9999 -9999 -9999 -9999 -9999 -9999 -9999 -9999 -9999 -9999 -9999 -9999 -9999 -9999 -9999 -9999 -9999 -9999 -9999 -9999 -9999 -9999 -9999 -9999 -9999 -9999 -9999 190 231 375 274 370 392 398 396 -9999 -9999 132 308 -9999 432 470 548 571 512 453 556 571 360 469 366 243 164 162 152 209 348 423 386 246 297 229 393 628 379 538 426 426 576 313 382 357 185 451 330 326 344 207 212 131 133 40 20 32 33 22 28 28 33 26 26 27 88 104 122 132 90 99 158 130 76 38 19 33 41 34 21 25 22 21 16 14 17 28 39 37 47 28 14 6 9 5 15 14 58 36 32 19 17 15 18 18 21 23 24 18 22 8 14 21 28 18 14 11 2 1 2 2 3 10 8 7 9 -9999 13 19 19 15 23 26 20 20 14 14 18 23 25 21 20 14 16 18 15 15 10 11 12 35 38 32 26 -9999 -9999 30 20 8 19 21 17 11 23 17 17 21 19 18 22 30 37 17 8 7 12 15 11 10 17 14 23 19 11 9 7 8 9 7 18 12 10 9 14 13 10 14 10 16 14 20 18 17 16 28 19 13 11 17 15 14 18 32 29 29 34 42 68 76 67 80 76 65 69 77 71 36 51 52 46 55 67 57 65 104 120 83 84 85 115 55 -9999 -9999 -9999 -9999 -9999 -9999 -9999 -9999 -9999 -9999 33 33 -9999 -9999 -9999 -9999 -9999 -9999 -9999 -9999 -9999 -9999 -9999 -9999 -9999 -9999 -9999 -9999 -9999 -9999 -9999 -9999 -9999 -9999 -9999 -9999 -9999 179 75 51 110 -9999 -9999 72 56 -9999 -9999 -9999 -9999 -9999 -9999 -9999 -9999 -9999 -9999 -9999 -9999 -9999 -9999 -9999
-9999 -9999 -9999 -9999 -9999 -9999 -9999 -9999 -9999 -9999 -9999 -9999 -9999 -9999 -9999 -9999 -9999 -9999 -9999 -9999 -9999 -9999 -9999 -9999 -9999 -9999 -9999 -9999 -9999 -9999 -9999 -9999 -9999 -9999 -9999 -9999 -9999 -9999 -9999 -9999 -9999 -9999 -9999 -9999 -9999 -9999 -9999 -9999 -9999 -9999 -9999 -9999 -9999 -9999 -9999 -9999 -9999 -9999 -9999 -9999 -9999 -9999 -9999 -9999 -9999 -9999 -9999 -9999 -9999 -9999 -9999 -9999 -9999 -9999 -9999 -9999 -9999 -9999 -9999 -9999 -9999 -9999 -9999 -9999 -9999 -9999 -9999 -9999 -9999 -9999 -9999 -9999 -9999 -9999 -9999 -9999 -9999 -9999 -9999 -9999 -9999 -9999 -9999 -9999 -9999 -9999 -9999 -9999 -9999 -9999 -9999 -9999 -9999 -9999 -9999 -9999 -9999 -9999 -9999 -9999 -9999 -9999 -9999 -9999 -9999 -9999 -9999 -9999 -9999 -9999 -9999 -9999 -9999 -9999 -9999 -9999 -9999 -9999 -9999 -9999 -9999 -9999 -9999 -9999 -9999 -9999 -9999 -9999 -9999 -9999 -9999 -9999 -9999 -9999 -9999 -9999 -9999 -9999 -9999 -9999 -9999 -9999 -9999 -9999 -9999 -9999 -9999 -9999 -9999 -9999 226 270 379 353 400 402 368 -9999 -9999 233 -9999 358 390 472 332 416 464 456 428 453 395 393 227 242 255 281 195 391 479 229 185 344 356 313 558 432 420 445 484 569 285 377 391 150 488 336 363 240 259 191 71 73 61 49 41 29 20 28 31 28 28 26 24 67 58 112 102 80 86 72 64 81 38 36 44 45 55 32 32 23 23 16 23 28 34 27 14 15 29 17 19 9 16 5 8 6 12 22 24 17 17 17 13 3 5 11 15 29 35 21 27 42 63 20 10 4 1 1 3 10 13 16 11 8 7 7 11 13 -9999 -9999 21 26 24 19 -9999 18 19 22 17 19 15 16 13 13 12 10 11 16 35 50 27 -9999 17 -9999 46 41 33 17 26 37 22 21 25 31 18 23 15 12 21 13 13 13 11 11 8 10 8 8 11 5 5 12 8 9 11 7 8 10 6 11 5 6 11 16 14 9 9 19 42 43 22 21 12 14 19 14 10 9 9 -9999 24 23 36 60 67 65 79 74 76 101 50 63 82 36 44 78 68 51 61 42 58 81 101 110 55 74 100 86 -9999 -9999 -9999 -9999 -9999 -9999 -9999 -9999 -9999 -9999 -9999 -9999 -9999 -9999 40 30 19 24 63 -9999 -9999 -9999 -9999 -9999 -9999 -9999 -9999 -9999 -9999 -9999 -9999 -9999 -9999 -9999 -9999 -9999 -9999 251 79 86 91 90 -9999 -9999 74 -9999 -9999 -9999 -9999 -9999 -9999 -9999 -9999 -9999 -9999 -9999 -9999 -9999 -9999 -9999 -9999
-9999 -9999 -9999 -9999 -9999 -9999 -9999 -9999 -9999 -9999 -9999 -9999 -9999 -9999 -9999 -9999 -9999 -9999 -9999 -9999 -9999 -9999 -9999 -9999 -9999 -9999 -9999 -9999 -9999 -9999 -9999 -9999 -9999 -9999 -9999 -9999 -9999 -9999 -9999 -9999 -9999 -9999 -9999 -9999 -9999 -9999 -9999 -9999 -9999 -9999 -9999 -9999 -9999 -9999 -9999 -9999 -9999 -9999 -9999 -9999 -9999 -9999 -9999 -9999 -9999 -9999 -9999 -9999 -9999 -9999 -9999 -9999 -9999 -9999 -9999 -9999 -9999 -9999 -9999 -9999 -9999 -9999 -9999 -9999 -9999 -9999 -9999 -9999 -9999 -9999 -9999 -9999 -9999 -9999 -9999 -9999 -9999 -9999 -9999 -9999 -9999 -9999 -9999 -9999 -9999 -9999 -9999 -9999 -9999 -9999 -9999 -9999 -9999 -9999 -9999 -9999 -9999 -9999 -9999 -9999 -9999 -9999 -9999 -9999 -9999 -9999 -9999 -9999 -9999 -9999 -9999 -9999 -9999 -9999 -9999 -9999 -9999 -9999 -9999 -9999 -9999 -9999 -9999 -9999 -9999 -9999 -9999 -9999 -9999 -9999 -9999 -9999 -9999 -9999 -9999 -9999 -9999 -9999 -9999 -9999 -9999 -9999 -9999 -9999 -9999 -9999 -9999 -9999 -9999 -9999 -9999 -9999 258 346 337 341 315 311 -9999 -9999 -9999 -9999 149 411 313 359 -9999 361 379 374 491 437 290 165 279 328 434 396 404 163 258 345 392 345 351 447 421 337 251 549 445 325 241 290 262 203 356 226 240 266 276 75 59 42 71 103 109 84 31 16 29 19 21 28 56 61 50 32 23 24 41 47 35 41 29 35 45 44 56 75 73 69 45 36 52 -9999 33 20 18 34 49 10 12 11 7 5 5 12 13 18 15 13 10 13 21 11 12 18 20 19 18 21 16 68 14 6 2 1 6 11 6 27 21 18 8 10 7 -9999 18 16 18 20 23 26 19 32 23 20 24 23 21 18 13 17 18 13 10 14 24 36 49 -9999 50 -9999 -9999 26 31 24 36 37 30 24 29 26 20 22 33 23 19 13 15 13 13 11 14 9 9 13 8 12 10 16 11 15 -9999 25 17 14 19 13 38 19 12 16 11 12 12 11 33 17 19 23 26 32 26 23 20 28 33 15 15 23 34 53 42 49 44 51 29 68 72 88 73 48 46 46 54 57 113 117 63 61 92 97 88 62 64 50 -9999 -9999 -9999 -9999 -9999 -9999 -9999 -9999 -9999 -9999 -9999 -9999 -9999 -9999 39 64 89 69 44 30 -9999 -9999 -9999 -9999 -9999 -9999 -9999 -9999 -9999 -9999 -9999 -9999 -9999 -9999 -9999 -9999 186 89 123 109 22 74 71 46 46 61 -9999 -9999 -9999 -9999 5 -9999 36 21 -9999 -9999 -9999 -9999 -9999 -9999 -9999
-9999 -9999 -9999 -9999 -9999 -9999 -9999 -9999 -9999 -9999 -9999 -9999 -9999 -9999 -9999 -9999 -9999 -9999 -9999 -9999 -9999 -9999 -9999 -9999 -9999 -9999 -9999 -9999 -9999 -9999 -9999 -9999 -9999 -9999 -9999 -9999 -9999 -9999 -9999 -9999 -9999 -9999 -9999 -9999 -9999 -9999 -9999 -9999 -9999 -9999 -9999 -9999 -9999 -9999 -9999 -9999 -9999 -9999 -9999 -9999 -9999 -9999 -9999 -9999 -9999 -9999 -9999 -9999 -9999 -9999 -9999 -9999 -9999 -9999 -9999 -9999 -9999 -9999 -9999 -9999 -9999 -9999 -9999 -9999 -9999 -9999 -9999 -9999 -9999 -9999 -9999 -9999 -9999 -9999 -9999 -9999 -9999 -9999 -9999 -9999 -9999 -9999 -9999 -9999 -9999 -9999 -9999 -9999 -9999 -9999 -9999 -9999 -9999 -9999 -9999 -9999 -9999 -9999 -9999 -9999 -9999 -9999 -9999 -9999 -9999 -9999 -9999 -9999 -9999 -9999 -9999 -9999 -9999 -9999 -9999 -9999 -9999 -9999 -9999 -9999 -9999 -9999 -9999 -9999 -9999 -9999 -9999 -9999 -9999 -9999 -9999 -9999 -9999 -9999 -9999 -9999 -9999 -9999 -9999 -9999 -9999 -9999 -9999 -9999 -9999 -9999 -9999 -9999 -9999 -9999 -9999 -9999 -9999 48 -9999 341 290 287 301 264 276 -9999 -9999 -9999 12 36 38 107 407 541 407 425 409 228 273 278 359 647 328 319 211 236 278 340 303 392 326 311 252 263 323 333 293 201 237 376 475 231 251 314 267 303 152 74 70 41 42 62 38 50 160 89 89 48 39 31 25 23 32 44 46 35 14 15 23 30 25 58 47 41 34 35 37 32 29 36 39 33 26 23 22 33 23 8 10 13 16 14 20 13 7 8 8 6 78 60 58 43 30 7 11 5 31 34 60 10 5 2 9 9 5 7 22 18 9 7 -9999 -9999 6 -9999 16 27 20 -9999 21 21 18 22 19 19 19 24 22 11 14 10 10 18 19 18 41 52 57 54 89 50 60 35 45 45 42 30 33 30 18 23 15 16 18 12 16 18 22 8 9 8 14 9 14 16 8 7 11 15 10 16 19 21 14 21 18 14 18 11 12 11 8 9 11 -9999 22 19 23 10 10 11 35 37 38 23 23 33 51 44 32 36 27 29 36 51 81 105 79 73 56 55 56 82 90 95 110 85 72 31 -9999 -9999 -9999 -9999 -9999 -9999 148 178 205 176 139 133 93 121 138 -9999 -9999 -9999 -9999 -9999 -9999 -9999 -9999 -9999 -9999 -9999 -9999 -9999 -9999 -9999 -9999 -9999 -9999 -9999 -9999 -9999 -9999 -9999 -9999 225 117 100 111 141 108 48 26 58 31 55 61 64 76 23 21 9 33 37 -9999 -9999 -9999 -9999 -9999 -9999 -9999
-9999 -9999 -9999 -9999 -9999 -9999 -9999 -9999 -9999 -9999 -9999 -9999 -9999 -9999 -9999 -9999 -9999 -9999 -9999 -9999 -9999 -9999 -9999 -9999 -9999 -9999 -9999 -9999 -9999 -9999 -9999 -9999 -9999 -9999 -9999 -9999 -9999 -9999 -9999 -9999 -9999 -9999 -9999 -9999 -9999 -9999 -9999 -9999 -9999 -9999 -9999 -9999 -9999 -9999 -9999 -9999 -9999 -9999 -9999 -9999 -9999 -9999 -9999 -9999 -9999 -9999 -9999 -9999 -9999 -9999 -9999 -9999 -9999 -9999 -9999 -9999 -9999 -9999 -9999 -9999 -9999 -9999 -9999 -9999 -9999 -9999 -9999 -9999 -9999 -9999 -9999 -9999 -9999 -9999 -9999 -9999 -9999 -9999 -9999 -9999 -9999 -9999 -9999 -9999 -9999 -9999 -9999 -9999 -9999 -9999 -9999 -9999 -9999 -9999 -9999 -9999 -9999 -9999 -9999 -9999 -9999 -9999 -9999 -9999 -9999 -9999 -9999 -9999 -9999 -9999 -9999 -9999 -9999 -9999 -9999 -9999 -9999 -9999 -9999 -9999 -9999 -9999 -9999 -9999 -9999 -9999 -9999 -9999 -9999 -9999 -9999 -9999 -9999 -9999 -9999 -9999 -9999 -9999 -9999 -9999 -9999 -9999 -9999 -9999 -9999 -9999 -9999 -9999 -9999 -9999 -9999 -9999 -9999 -9999 -9999 -9999 -9999 229 215 244 247 285 97 -9999 -9999 28 56 251 401 500 465 425 462 295 293 295 325 360 265 320 183 229 324 323 218 260 300 346 268 351 418 320 388 252 258 -9999 283 385 251 292 369 341 331 103 66 38 40 39 91 41 118 117 169 33 19 24 34 28 15 20 52 45 18 33 26 37 49 57 31 29 48 33 37 34 33 42 54 44 46 37 16 17 23 34 55 68 60 22 14 20 14 8 5 6 54 87 72 57 14 17 9 6 3 9 52 28 8 3 3 14 5 3 8 9 12 17 17 -9999 6 8 13 13 15 -9999 18 19 20 17 19 21 25 -9999 16 16 15 16 17 25 25 21 24 58 57 51 -9999 -9999 97 57 66 57 72 58 38 34 17 31 35 28 22 -9999 23 20 15 23 24 15 20 20 6 7 12 8 15 13 9 10 11 12 10 13 11 20 14 14 10 12 8 12 19 39 29 27 22 12 9 29 30 33 26 45 40 48 59 72 77 84 26 22 29 36 45 121 129 68 44 71 104 124 123 86 60 50 -9999 -9999 -9999 -9999 -9999 -9999 118 169 179 185 189 112 83 75 102 135 148 126 -9999 -9999 -9999 -9999 -9999 -9999 -9999 -9999 -9999 -9999 -9999 -9999 -9999 -9999 -9999 -9999 -9999 -9999 -9999 -9999 -9999 -9999 -9999 127 81 159 139 125 60 44 51 31 31 60 39 53 76 53 45 46 27 -9999 -9999 -9999 -9999 -9999 -9999 -9999 -9999
-9999 -9999 -9999 -9999 -9999 -9999 -9999 -9999 -9999 -9999 -9999 -9999 -9999 -9999 -9999 -9999 -9999 -9999 -9999 -9999 -9999 -9999 -9999 -9999 -9999 -9999 -9999 -9999 -9999 -9999 -9999 -9999 -9999 -9999 -9999 -9999 -9999 -9999 -9999 -9999 -9999 -9999 -9999 -9999 -9999 -9999 -9999 -9999 -9999 -9999 -9999 -9999 -9999 -9999 -9999 -9999 -9999 -9999 -9999 -9999 -9999 -9999 -9999 -9999 -9999 -9999 -9999 -9999 -9999 -9999 -9999 -9999 -9999 -9999 -9999 -9999 -9999 -9999 -9999 -9999 -9999 -9999 -9999 -9999 -9999 -9999 -9999 -9999 -9999 -9999 -9999 -9999 -9999 -9999 -9999 -9999 -9999 -9999 -9999 -9999 -9999 -9999 -9999 -9999 -9999 -9999 -9999 -9999 -9999 -9999 -9999 -9999 -9999 -9999 -9999 -9999 -9999 -9999 -9999 -9999 -9999 -9999 -9999 -9999 -9999 -9999 -9999 -9999 -9999 -9999 -9999 -9999 -9999 -9999 -9999 -9999 -9999 -9999 -9999 -9999 -9999 -9999 -9999 -9999 -9999 -9999 -9999 -9999 -9999 -9999 -9999 -9999 -9999 -9999 -9999 -9999 -9999 -9999 -9999 -9999 -9999 -9999 -9999 -9999 -9999 -9999 -9999 -9999 -9999 -9999 -9999 -9999 -9999 -9999 -9999 -9999 -9999 -9999 259 271 205 184 -9999 -9999 47 -9999 -9999 208 398 386 472 480 471 327 406 346 404 360 200 262 213 175 254 329 252 242 189 211 215 365 358 365 338 333 269 -9999 186 211 339 280 225 410 324 246 69 48 35 38 44 22 26 41 38 27 21 23 27 44 70 68 44 52 75 50 28 51 38 50 52 57 38 29 24 44 50 55 33 41 40 31 33 32 24 17 19 23 20 24 46 27 20 12 6 5 5 5 13 8 14 13 9 10 6 9 26 36 7 4 2 10 12 10 12 8 10 6 8 10 7 8 7 9 8 7 15 18 16 19 22 22 25 18 24 26 21 18 25 39 47 69 101 93 -9999 36 -9999 -9999 -9999 -9999 -9999 -9999 -9999 -9999 34 38 41 40 33 35 31 30 22 29 19 17 21 19 22 18 12 11 17 12 11 13 16 14 26 24 23 16 26 38 25 11 12 13 11 11 30 42 32 24 19 9 12 15 14 18 -9999 58 49 57 34 35 29 53 104 86 -9999 -9999 29 36 104 228 173 116 122 83 100 65 -9999 -9999 -9999 -9999 86 97 87 79 86 68 81 143 143 100 96 74 67 75 102 81 -9999 -9999 -9999 -9999 -9999 -9999 -9999 -9999 -9999 -9999 -9999 -9999 -9999 -9999 -9999 -9999 -9999 -9999 -9999 -9999 83 -9999 115 109 95 87 120 28 47 35 59 49 45 44 5 13 45 49 32 36 58 35 -9999 50 40 -9999 -9999 -9999 -9999
-9999 -9999 -9999 -9999 -9999 -9999 -9999 -9999 -9999 -9999 -9999 -9999 -9999 -9999 -9999 -9999 -9999 -9999 -9999 -9999 -9999 -9999 -9999 -9999 -9999 -9999 -9999 -9999 -9999 -9999 -9999 -9999 -9999 -9999 -9999 -9999 -9999 -9999 -9999 -9999 -9999 -9999 -9999 -9999 -9999 -9999 -9999 -9999 -9999 -9999 -9999 -9999 -9999 -9999 -9999 -9999 -9999 -9999 -9999 -9999 -9999 -9999 -9999 -9999 -9999 -9999 -9999 -9999 -9999 -9999 -9999 -9999 -9999 -9999 -9999 -9999 -9999 -9999 -9999 -9999 -9999 -9999 -9999 -9999 -9999 -9999 -9999 -9999 -9999 -9999 -9999 -9999 -9999 -9999 -9999 -9999 -9999 -9999 -9999 -9999 -9999 -9999 -9999 -9999 -9999 -9999 -9999 -9999 -9999 -9999 -9999 -9999 -9999 -9999 -9999 -9999 -9999 -9999 -9999 -9999 -9999 -9999 -9999 -9999 -9999 -9999 -9999 -9999 -9999 -9999 -9999 -9999 -9999 -9999 -9999 -9999 -9999 -9999 -9999 -9999 -9999 -9999 -9999 -9999 -9999 -9999 -9999 -9999 -9999 -9999 -9999 -9999 -9999 -9999 -9999 -9999 -9999 -9999 -9999 -9999 -9999 -9999 -9999 -9999 -9999 -9999 -9999 -9999 -9999 -9999 -9999 -9999 -9999 -9999 -9999 -9999 -9999 -9999 108 108 -9999 -9999 -9999 -9999 -9999 -9999 -9999 98 302 361 384 401 388 491 538 469 268 309 201 259 276 168 218 226 251 193 225 165 194 285 301 375 282 474 305 250 207 172 210 43 352 338 305 214 263 96 56 39 48 43 42 34 30 31 25 18 40 191 173 155 136 56 35 36 38 49 51 46 53 37 54 54 42 43 46 50 39 33 35 30 27 29 36 23 41 36 21 17 24 30 44 21 10 6 7 7 8 11 12 12 3 4 4 6 19 33 12 3 2 7 17 8 2 3 4 4 3 3 3 4 7 9 10 17 25 28 21 23 20 -9999 24 30 26 23 21 30 52 69 64 61 -9999 -9999 -9999 -9999 -9999 -9999 -9999 -9999 -9999 -9999 -9999 -9999 77 58 39 44 17 41 31 25 21 33 27 23 19 22 20 24 20 16 22 20 21 25 22 26 16 20 28 27 23 17 21 20 20 32 10 14 20 43 29 16 21 20 15 14 12 25 39 41 51 67 33 35 44 52 38 45 74 96 96 99 90 98 109 146 174 -9999 -9999 -9999 -9999 67 49 85 73 118 74 66 83 70 115 99 143 131 92 93 127 85 -9999 -9999 -9999 -9999 -9999 -9999 -9999 -9999 -9999 -9999 -9999 -9999 -9999 -9999 -9999 -9999 -9999 -9999 -9999 -9999 -9999 -9999 -9999 -9999 94 100 39 21 60 7 42 35 -9999 40 34 40 19 40 35 27 -9999 34 64 56 -9999 -9999 -9999 -9999 -9999 -9999 -9999
-9999 -9999 -9999 -9999 -9999 -9999 -9999 -9999 -9999 -9999 -9999 -9999 -9999 -9999 -9999 -9999 -9999 -9999 -9999 -9999 -9999 -9999 -9999 -9999 -9999 -9999 -9999 -9999 -9999 -9999 -9999 -9999 -9999 -9999 -9999 -9999 -9999 -9999 -9999 -9999 -9999 -9999 -9999 -9999 -9999 -9999 -9999 -9999 -9999 -9999 -9999 -9999 -9999 -9999 -9999 -9999 -9999 -9999 -9999 -9999 -9999 -9999 -9999 -9999 -9999 -9999 -9999 -9999 -9999 -9999 -9999 -9999 -9999 -9999 -9999 -9999 -9999 -9999 -9999 -9999 -9999 -9999 -9999 -9999 -9999 -9999 -9999 -9999 -9999 -9999 -9999 -9999 -9999 -9999 -9999 -9999 -9999 -9999 -9999 -9999 -9999 -9999 -9999 -9999 -9999 -9999 -9999 -9999 -9999 -9999 -9999 -9999 -9999 -9999 -9999 -9999 -9999 -9999 -9999 -9999 -9999 -9999 -9999 -9999 -9999 -9999 -9999 -9999 -9999 -9999 -9999 -9999 -9999 -9999 -9999 -9999 -9999 -9999 -9999 -9999 -9999 -9999 -9999 -9999 -9999 -9999 -9999 -9999 -9999 -9999 -9999 -9999 -9999 -9999 -9999 -9999 -9999 -9999 -9999 -9999 -9999 -9999 -9999 -9999 -9999 -9999 -9999 -9999 -9999 -9999 -9999 -9999 -9999 -9999 -9999 -9999 -9999 -9999 73 127 241 439 472 450 -9999 -9999 41 54 117 320 315 357 397 392 514 537 325 230 152 156 148 212 185 165 186 120 119 95 187 140 168 307 319 341 287 207 211 164 189 -9999 243 307 289 209 185 281 76 54 37 26 20 32 37 41 38 39 77 187 175 115 100 81 195 66 27 20 34 27 25 24 27 49 38 42 37 32 50 39 38 42 45 44 47 53 59 57 61 49 17 9 17 49 40 14 10 9 13 11 10 19 -9999 -9999 6 2 7 38 25 6 3 5 12 12 5 3 3 7 -9999 11 13 20 14 4 10 12 15 18 20 14 24 22 -9999 27 36 49 46 45 58 58 78 -9999 -9999 -9999 -9999 -9999 -9999 -9999 -9999 -9999 -9999 -9999 -9999 -9999 -9999 59 53 44 41 54 45 49 40 31 38 23 27 27 34 26 26 14 17 15 28 36 24 21 24 22 33 24 22 17 20 21 -9999 19 14 11 24 47 33 44 28 21 17 20 43 41 36 38 55 64 34 60 52 51 47 37 34 49 100 122 190 157 152 175 134 78 -9999 -9999 76 67 52 72 53 48 74 76 90 122 -9999 -9999 -9999 -9999 -9999 86 -9999 -9999 -9999 -9999 -9999 -9999 -9999 -9999 -9999 -9999 -9999 -9999 -9999 -9999 -9999 -9999 -9999 -9999 -9999 -9999 -9999 -9999 -9999 -9999 133 88 57 69 33 37 36 26 35 54 45 25 50 40 14 41 51 20 23 37 80 60 -9999 -9999 -9999 -9999 -9999 -9999 -9999
-9999 -9999 -9999 -9999 -9999 -9999 -9999 -9999 -9999 -9999 -9999 -9999 -9999 -9999 -9999 -9999 -9999 -9999 -9999 -9999 -9999 -9999 -9999 -9999 -9999 -9999 -9999 -9999 -9999 -9999 -9999 -9999 -9999 -9999 -9999 -9999 -9999 -9999 -9999 -9999 -9999 -9999 -9999 -9999 -9999 -9999 -9999 -9999 -9999 -9999 -9999 -9999 -9999 -9999 -9999 -9999 -9999 -9999 -9999 -9999 -9999 -9999 -9999 -9999 -9999 -9999 -9999 -9999 -9999 -9999 -9999 -9999 -9999 -9999 -9999 -9999 -9999 -9999 -9999 -9999 -9999 -9999 -9999 -9999 -9999 -9999 -9999 -9999 -9999 -9999 -9999 -9999 -9999 -9999 -9999 -9999 -9999 -9999 -9999 -9999 -9999 -9999 -9999 -9999 -9999 -9999 -9999 -9999 -9999 -9999 -9999 -9999 -9999 -9999 -9999 -9999 -9999 -9999 -9999 -9999 -9999 -9999 -9999 -9999 -9999 -9999 -9999 -9999 -9999 -9999 -9999 -9999 -9999 -9999 -9999 -9999 -9999 -9999 -9999 -9999 -9999 -9999 -9999 -9999 -9999 -9999 -9999 -9999 -9999 -9999 -9999 -9999 -9999 -9999 -9999 -9999 -9999 -9999 -9999 -9999 -9999 -9999 -9999 -9999 -9999 -9999 -9999 -9999 -9999 -9999 -9999 -9999 -9999 -9999 -9999 -9999 -9999 -9999 -9999 125 238 431 321 319 438 66 -9999 53 76 278 361 344 284 368 386 385 234 119 27 72 99 103 124 124 113 110 86 104 223 97 191 145 237 262 300 263 225 300 200 150 428 370 314 285 226 235 107 50 33 42 46 56 40 50 79 45 53 80 90 83 81 123 167 52 27 32 63 63 42 -9999 38 30 31 35 31 31 28 33 34 37 37 29 28 31 37 40 43 39 25 15 17 25 26 44 47 15 10 8 11 12 12 13 12 12 8 35 12 18 6 3 9 16 9 15 19 21 11 23 18 10 10 12 10 11 15 12 15 16 16 21 24 18 26 40 104 -9999 -9999 -9999 -9999 -9999 -9999 -9999 -9999 -9999 -9999 -9999 -9999 -9999 -9999 -9999 -9999 -9999 -9999 62 -9999 -9999 -9999 63 50 41 23 21 19 16 18 16 13 11 18 27 25 12 24 25 23 16 18 30 38 22 26 20 23 19 15 14 8 29 39 31 31 22 38 20 20 38 43 51 53 44 47 55 53 53 38 54 60 44 38 63 91 60 64 93 191 219 163 -9999 49 93 59 64 64 78 58 85 90 69 87 75 67 86 93 64 -9999 -9999 13 9 -9999 -9999 -9999 -9999 -9999 -9999 -9999 -9999 -9999 -9999 -9999 -9999 -9999 -9999 -9999 -9999 -9999 -9999 -9999 -9999 -9999 -9999 101 34 105 110 117 107 62 84 58 50 76 76 91 -9999 58 47 41 52 36 62 -9999 59 -9999 58 -9999 -9999 -9999 -9999 -9999
-9999 -9999 -9999 -9999 -9999 -9999 -9999 -9999 -9999 -9999 -9999 -9999 -9999 -9999 -9999 -9999 -9999 -9999 -9999 -9999 -9999 -9999 -9999 -9999 -9999 -9999 -9999 -9999 -9999 -9999 -9999 -9999 -9999 -9999 -9999 -9999 -9999 -9999 -9999 -9999 -9999 -9999 -9999 -9999 -9999 -9999 -9999 -9999 -9999 -9999 -9999 -9999 -9999 -9999 -9999 -9999 -9999 -9999 -9999 -9999 -9999 -9999 -9999 -9999 -9999 -9999 -9999 -9999 -9999 -9999 -9999 -9999 -9999 -9999 -9999 -9999 -9999 -9999 -9999 -9999 -9999 -9999 -9999 -9999 -9999 -9999 -9999 -9999 -9999 -9999 -9999 -9999 -9999 -9999 -9999 -9999 -9999 -9999 -9999 -9999 -9999 -9999 -9999 -9999 -9999 -9999 -9999 -9999 -9999 -9999 -9999 -9999 -9999 -9999 -9999 -9999 -9999 -9999 -9999 -9999 -9999 -9999 -9999 -9999 -9999 -9999 -9999 -9999 -9999 -9999 -9999 -9999 -9999 -9999 -9999 -9999 -9999 -9999 -9999 -9999 -9999 -9999 -9999 -9999 -9999 -9999 -9999 -9999 -9999 -9999 -9999 -9999 -9999 -9999 -9999 -9999 -9999 -9999 -9999 -9999 -9999 -9999 -9999 -9999 -9999 -9999 -9999 -9999 -9999 -9999 -9999 -9999 -9999 -9999 -9999 -9999 -9999 -9999 -9999 70 191 327 330 410 363 78 -9999 -9999 162 268 339 339 297 504 291 347 137 119 119 80 45 47 38 26 31 29 41 84 176 116 190 241 252 271 266 348 333 283 168 94 482 348 335 291 228 240 111 70 50 62 48 41 60 140 255 146 52 82 77 45 51 69 62 53 50 54 96 77 73 49 30 29 31 27 23 36 50 40 42 43 42 26 41 57 74 76 52 47 -9999 27 -9999 -9999 20 17 19 33 40 27 17 7 6 7 12 12 18 33 11 9 9 2 6 24 7 16 26 14 10 9 9 7 10 12 11 10 21 22 29 26 26 20 25 37 73 118 -9999 -9999 -9999 -9999 -9999 -9999 -9999 -9999 -9999 -9999 -9999 -9999 -9999 -9999 -9999 -9999 -9999 -9999 -9999 -9999 -9999 -9999 -9999 69 51 39 30 24 30 12 15 28 29 17 17 15 16 15 17 40 51 55 30 40 29 28 19 28 28 21 20 16 16 24 28 19 17 56 26 25 26 33 46 50 50 45 43 50 46 46 44 77 73 34 63 88 53 71 57 77 211 104 -9999 -9999 101 82 82 68 76 70 58 66 49 50 53 113 101 88 48 56 46 26 18 -9999 -9999 -9999 -9999 -9999 -9999 -9999 -9999 -9999 -9999 -9999 -9999 -9999 -9999 -9999 -9999 -9999 -9999 -9999 -9999 -9999 -9999 -9999 -9999 -9999 -9999 -9999 -9999 -9999 -9999 -9999 -9999 129 -9999 -9999 -9999 74 85 -9999 -9999 -9999 53 -9999 -9999 -9999 -9999 42 -9999 62 -9999 -9999 -9999
-9999 -9999 -9999 -9999 -9999 -9999 -9999 -9999 -9999 -9999 -9999 -9999 -9999 -9999 -9999 -9999 -9999 -9999 -9999 -9999 -9999 -9999 -9999 -9999 -9999 -9999 -9999 -9999 -9999 -9999 -9999 -9999 -9999 -9999 -9999 -9999 -9999 -9999 -9999 -9999 -9999 -9999 -9999 -9999 -9999 -9999 -9999 -9999 -9999 -9999 -9999 -9999 -9999 -9999 -9999 -9999 -9999 -9999 -9999 -9999 -9999 -9999 -9999 -9999 -9999 -9999 -9999 -9999 -9999 -9999 -9999 -9999 -9999 -9999 -9999 -9999 -9999 -9999 -9999 -9999 -9999 -9999 -9999 -9999 -9999 -9999 -9999 -9999 -9999 -9999 -9999 -9999 -9999 -9999 -9999 -9999 -9999 -9999 -9999 -9999 -9999 -9999 -9999 -9999 -9999 -9999 -9999 -9999 -9999 -9999 -9999 -9999 -9999 -9999 -9999 -9999 -9999 -9999 -9999 -9999 -9999 -9999 -9999 -9999 -9999 -9999 -9999 -9999 -9999 -9999 -9999 -9999 -9999 -9999 -9999 -9999 -9999 -9999 -9999 -9999 -9999 -9999 -9999 -9999 -9999 -9999 -9999 -9999 -9999 -9999 -9999 -9999 -9999 -9999 -9999 -9999 -9999 -9999 -9999 -9999 -9999 -9999 -9999 -9999 -9999 -9999 -9999 -9999 -9999 -9999 -9999 -9999 -9999 -9999 -9999 -9999 -9999 -9999 -9999 -9999 30 151 205 172 50 -9999 -9999 59 59 256 260 250 313 326 321 485 180 151 115 31 35 30 34 36 41 33 41 28 61 124 186 235 240 230 220 258 280 331 362 321 397 339 324 244 236 220 279 98 82 169 58 113 129 135 184 86 55 49 129 152 163 43 35 34 58 52 46 35 23 26 40 31 32 25 58 51 33 50 53 49 38 33 37 33 30 28 20 22 35 32 38 39 33 23 15 12 14 20 21 40 25 10 5 6 15 31 8 16 5 2 4 22 11 28 41 26 18 20 12 9 6 9 13 19 23 12 8 11 16 24 72 104 -9999 -9999 -9999 -9999 -9999 -9999 -9999 -9999 -9999 -9999 76 62 -9999 -9999 -9999 -9999 -9999 -9999 -9999 -9999 -9999 -9999 -9999 -9999 -9999 -9999 93 44 36 38 31 36 21 27 31 17 16 16 18 16 43 56 54 67 31 33 64 37 21 20 22 18 19 22 21 18 18 13 18 39 31 32 49 37 40 40 35 25 39 30 51 47 69 86 49 49 91 77 73 142 107 189 -9999 -9999 106 96 82 83 80 78 68 60 58 43 52 37 66 114 119 83 64 51 25 27 -9999 -9999 -9999 -9999 -9999 -9999 -9999 -9999 -9999 -9999 -9999 -9999 -9999 -9999 -9999 -9999 -9999 -9999 -9999 -9999 -9999 -9999 -9999 -9999 -9999 -9999 -9999 -9999 -9999 -9999 -9999 -9999 -9999 -9999 -9999 -9999 -9999 -9999 -9999 -9999 88 -9999 -9999 -9999 -9999 47 45 27 58 63 -9999 -9999 -9999
-9999 -9999 -9999 -9999 -9999 -9999 -9999 -9999 -9999 -9999 -9999 -9999 -9999 -9999 -9999 -9999 -9999 -9999 -9999 -9999 -9999 -9999 -9999 -9999 -9999 -9999 -9999 -9999 -9999 -9999 -9999 -9999 -9999 -9999 -9999 -9999 -9999 -9999 -9999 -9999 -9999 -9999 -9999 -9999 -9999 -9999 -9999 -9999 -9999 -9999 -9999 -9999 -9999 -9999 -9999 -9999 -9999 -9999 -9999 -9999 -9999 -9999 -9999 -9999 -9999 -9999 -9999 -9999 -9999 -9999 -9999 -9999 -9999 -9999 -9999 -9999 -9999 -9999 -9999 -9999 -9999 -9999 -9999 -9999 -9999 -9999 -9999 -9999 -9999 -9999 -9999 -9999 -9999 -9999 -9999 -9999 -9999 -9999 -9999 -9999 -9999 -9999 -9999 -9999 -9999 -9999 -9999 -9999 -9999 -9999 -9999 -9999 -9999 -9999 -9999 -9999 -9999 -9999 -9999 -9999 -9999 -9999 -9999 -9999 -9999 -9999 -9999 -9999 -9999 -9999 -9999 -9999 -9999 -9999 -9999 -9999 -9999 -9999 -9999 -9999 -9999 -9999 -9999 -9999 -9999 -9999 -9999 -9999 -9999 -9999 -9999 -9999 -9999 -9999 -9999 -9999 -9999 -9999 -9999 -9999 -9999 -9999 -9999 -9999 -9999 -9999 -9999 -9999 -9999 -9999 -9999 -9999 -9999 -9999 -9999 -9999 -9999 -9999 -9999 -9999 35 44 47 123 141 38 28 80 276 361 350 230 306 264 234 272 172 38 25 29 32 47 37 32 36 46 52 34 88 126 146 174 244 218 220 214 240 295 289 336 375 247 183 209 295 330 235 220 137 230 206 170 222 253 282 206 64 47 97 115 94 81 49 29 46 49 36 49 52 37 26 28 32 49 62 48 43 48 44 40 30 38 37 29 22 36 32 27 36 30 25 20 45 46 25 21 18 12 16 18 34 10 9 5 15 31 8 18 6 2 9 23 8 24 20 17 18 30 21 14 11 18 22 10 12 5 8 17 20 78 -9999 -9999 -9999 -9999 -9999 -9999 -9999 -9999 -9999 -9999 -9999 75 58 19 -9999 -9999 -9999 -9999 -9999 -9999 -9999 -9999 -9999 -9999 -9999 -9999 -9999 -9999 69 69 56 44 36 43 31 16 18 28 25 30 22 21 25 29 37 33 27 20 38 40 21 25 28 21 18 26 29 22 27 26 20 37 52 61 53 55 56 33 50 45 33 41 40 55 65 73 72 68 90 156 159 167 204 239 -9999 142 53 52 87 55 73 71 62 37 39 35 54 61 81 70 75 76 69 39 36 22 10 6 -9999 -9999 -9999 -9999 -9999 -9999 -9999 -9999 -9999 -9999 -9999 -9999 -9999 -9999 -9999 -9999 -9999 -9999 -9999 -9999 -9999 -9999 -9999 -9999 -9999 -9999 -9999 -9999 -9999 -9999 -9999 -9999 -9999 -9999 -9999 58 36 56 -9999 -9999 -9999 -9999 65 56 51 52 49 54 -9999 -9999 -9999
-9999 -9999 -9999 -9999 -9999 -9999 -9999 -9999 -9999 -9999 -9999 -9999 -9999 -9999 -9999 -9999 -9999 -9999 -9999 -9999 -9999 -9999 -9999 -9999 -9999 -9999 -9999 -9999 -9999 -9999 -9999 -9999 -9999 -9999 -9999 -9999 -9999 -9999 -9999 -9999 -9999 -9999 -9999 -9999 -9999 -9999 -9999 -9999 -9999 -9999 -9999 -9999 -9999 -9999 -9999 -9999 -9999 -9999 -9999 -9999 -9999 -9999 -9999 -9999 -9999 -9999 -9999 -9999 -9999 -9999 -9999 -9999 -9999 -9999 -9999 -9999 -9999 -9999 -9999 -9999 -9999 -9999 -9999 -9999 -9999 -9999 -9999 -9999 -9999 -9999 -9999 -9999 -9999 -9999 -9999 -9999 -9999 -9999 -9999 -9999 -9999 -9999 -9999 -9999 -9999 -9999 -9999 -9999 -9999 -9999 -9999 -9999 -9999 -9999 -9999 -9999 -9999 -9999 -9999 -9999 -9999 -9999 -9999 -9999 -9999 -9999 -9999 -9999 -9999 -9999 -9999 -9999 -9999 -9999 -9999 -9999 -9999 -9999 -9999 -9999 -9999 -9999 -9999 -9999 -9999 -9999 -9999 -9999 -9999 -9999 -9999 -9999 -9999 -9999 -9999 -9999 -9999 -9999 -9999 -9999 -9999 -9999 -9999 -9999 -9999 -9999 -9999 -9999 -9999 -9999 -9999 -9999 -9999 -9999 -9999 -9999 -9999 -9999 -9999 -9999 -9999 54 77 147 67 93 237 217 265 668 340 256 270 245 185 115 213 132 121 59 41 49 44 60 48 59 101 52 75 107 121 153 243 250 320 276 231 287 203 292 229 266 222 239 193 222 206 205 176 295 169 149 201 184 175 239 244 109 259 268 121 78 72 49 46 35 32 37 49 35 29 27 33 43 51 48 46 42 33 45 33 31 41 29 26 25 28 28 28 26 29 34 35 32 18 21 18 21 28 23 24 15 10 4 22 28 12 11 3 2 10 35 17 18 18 20 10 9 20 16 20 14 9 12 7 12 13 45 -9999 -9999 27 60 47 61 -9999 -9999 -9999 103 57 57 49 51 46 118 131 108 -9999 -9999 -9999 -9999 -9999 -9999 -9999 -9999 -9999 -9999 15 -9999 40 97 68 54 45 43 29 36 29 26 26 33 23 23 37 33 -9999 38 22 20 13 39 34 34 31 27 28 31 35 33 25 30 39 62 41 35 76 48 72 40 56 46 45 52 67 62 67 79 84 55 82 61 81 -9999 35 83 103 74 38 34 45 54 62 82 43 33 28 39 83 101 62 74 69 71 52 21 18 19 14 5 -9999 20 -9999 -9999 -9999 -9999 -9999 -9999 -9999 -9999 -9999 -9999 -9999 -9999 -9999 168 151 109 -9999 -9999 -9999 -9999 -9999 -9999 -9999 -9999 -9999 -9999 -9999 -9999 -9999 -9999 -9999 -9999 -9999 -9999 -9999 -9999 -9999 -9999 -9999 -9999 -9999 -9999 65 -9999 -9999 -9999 -9999 -9999 -9999
-9999 -9999 -9999 -9999 -9999 -9999 -9999 -9999 -9999 -9999 -9999 -9999 -9999 -9999 -9999 -9999 -9999 -9999 -9999 -9999 -9999 -9999 -9999 -9999 -9999 -9999 -9999 -9999 -9999 -9999 -9999 -9999 -9999 -9999 -9999 -9999 -9999 -9999 -9999 -9999 -9999 -9999 -9999 -9999 -9999 -9999 -9999 -9999 -9999 -9999 -9999 -9999 -9999 -9999 -9999 -9999 -9999 -9999 -9999 -9999 -9999 -9999 -9999 -9999 -9999 -9999 -9999 -9999 -9999 -9999 -9999 -9999 -9999 -9999 -9999 -9999 -9999 -9999 -9999 -9999 -9999 -9999 -9999 -9999 -9999 -9999 -9999 -9999 -9999 -9999 -9999 -9999 -9999 -9999 -9999 -9999 -9999 -9999 -9999 -9999 -9999 -9999 -9999 -9999 -9999 -9999 -9999 -9999 -9999 -9999 -9999 -9999 -9999 -9999 -9999 -9999 -9999 -9999 -9999 -9999 -9999 -9999 -9999 -9999 -9999 -9999 -9999 -9999 -9999 -9999 -9999 -9999 -9999 -9999 -9999 -9999 -9999 -9999 -9999 -9999 -9999 -9999 -9999 -9999 -9999 -9999 -9999 -9999 -9999 -9999 -9999 -9999 -9999 -9999 -9999 -9999 -9999 -9999 -9999 -9999 -9999 -9999 -9999 -9999 -9999 -9999 -9999 -9999 -9999 -9999 -9999 -9999 -9999 -9999 -9999 -9999 -9999 -9999 -9999 -9999 -9999 132 162 179 79 59 207 245 320 360 389 280 302 201 99 197 192 209 55 70 34 44 79 90 93 121 142 179 127 180 174 205 158 143 234 249 260 292 226 313 197 264 266 194 322 182 164 212 211 267 238 315 171 241 138 245 158 64 102 149 84 44 50 35 43 54 38 31 28 23 40 24 34 43 60 50 51 31 34 48 42 36 44 26 28 27 20 24 36 26 31 36 42 49 35 29 17 16 23 18 20 28 12 9 16 22 13 7 14 4 6 37 17 12 10 11 13 10 20 13 9 11 10 9 10 21 27 48 68 45 38 36 55 25 57 92 57 37 40 29 42 41 57 23 24 36 69 -9999 -9999 -9999 -9999 -9999 15 25 17 20 32 -9999 59 76 86 81 72 69 61 46 39 41 40 40 39 44 18 27 18 19 18 28 28 33 52 47 30 25 24 37 29 33 37 46 57 47 45 40 68 53 69 82 58 51 67 66 53 78 70 61 34 46 -9999 36 39 21 51 72 120 104 29 45 42 54 48 58 49 27 45 48 110 69 56 74 69 42 23 19 16 17 16 17 -9999 -9999 13 8 -9999 -9999 -9999 -9999 -9999 -9999 -9999 -9999 -9999 -9999 -9999 83 87 -9999 -9999 -9999 -9999 -9999 -9999 -9999 -9999 -9999 -9999 -9999 -9999 -9999 -9999 -9999 -9999 -9999 -9999 -9999 -9999 -9999 -9999 -9999 -9999 -9999 -9999 -9999 -9999 -9999 -9999 -9999 -9999 -9999 -9999
-9999 -9999 -9999 -9999 -9999 -9999 -9999 -9999 -9999 -9999 -9999 -9999 -9999 -9999 -9999 -9999 -9999 -9999 -9999 -9999 -9999 -9999 -9999 -9999 -9999 -9999 -9999 -9999 -9999 -9999 -9999 -9999 -9999 -9999 -9999 -9999 -9999 -9999 -9999 -9999 -9999 -9999 -9999 -9999 -9999 -9999 -9999 -9999 -9999 -9999 -9999 -9999 -9999 -9999 -9999 -9999 -9999 -9999 -9999 -9999 -9999 -9999 -9999 -9999 -9999 -9999 -9999 -9999 -9999 -9999 -9999 -9999 -9999 -9999 -9999 -9999 -9999 -9999 -9999 -9999 -9999 -9999 -9999 -9999 -9999 -9999 -9999 -9999 -9999 -9999 -9999 -9999 -9999 -9999 -9999 -9999 -9999 -9999 -9999 -9999 -9999 -9999 -9999 -9999 -9999 -9999 -9999 -9999 -9999 -9999 -9999 -9999 -9999 -9999 -9999 -9999 -9999 -9999 -9999 -9999 -9999 -9999 -9999 -9999 -9999 -9999 -9999 -9999 -9999 -9999 -9999 -9999 -9999 -9999 -9999 -9999 -9999 -9999 -9999 -9999 -9999 -9999 -9999 -9999 -9999 -9999 -9999 -9999 -9999 -9999 -9999 -9999 -9999 -9999 -9999 -9999 -9999 -9999 -9999 -9999 -9999 -9999 -9999 -9999 -9999 -9999 -9999 -9999 -9999 -9999 -9999 -9999 -9999 -9999 -9999 -9999 -9999 -9999 -9999 -9999 -9999 -9999 -9999 187 160 115 186 306 254 262 442 235 227 285 171 88 79 202 187 59 38 55 48 86 124 231 257 232 211 303 160 138 181 110 251 375 283 343 228 432 309 230 195 240 246 156 225 195 240 271 168 279 147 113 220 306 122 72 47 46 44 44 74 83 50 44 44 50 44 44 47 45 55 44 53 48 48 38 44 35 33 37 33 26 18 17 21 21 23 28 35 40 23 25 27 35 28 26 19 15 14 52 9 14 9 16 17 3 7 5 3 23 22 9 22 13 11 10 18 13 12 9 -9999 8 24 15 14 17 27 21 23 30 67 78 59 26 18 17 27 46 29 18 17 28 29 27 25 35 25 24 20 16 15 20 19 16 20 26 14 15 29 30 -9999 42 44 55 53 55 54 47 28 22 23 17 13 13 17 23 -9999 57 59 55 56 66 76 74 51 36 42 41 37 43 44 65 61 62 42 48 132 103 85 91 101 59 77 -9999 21 22 12 24 65 104 104 81 65 36 44 49 55 24 55 55 36 37 44 25 39 92 60 52 37 17 21 30 26 20 13 29 -9999 -9999 -9999 -9999 29 31 17 14 -9999 -9999 -9999 -9999 -9999 -9999 116 101 -9999 -9999 15 -9999 -9999 -9999 -9999 -9999 -9999 -9999 -9999 -9999 -9999 -9999 -9999 -9999 -9999 -9999 -9999 -9999 -9999 -9999 -9999 -9999 -9999 -9999 -9999 -9999 -9999 -9999 -9999 -9999 -9999 -9999 -9999
-9999 -9999 -9999 -9999 -9999 -9999 -9999 -9999 -9999 -9999 -9999 -9999 -9999 -9999 -9999 -9999 -9999 -9999 -9999 -9999 -9999 -9999 -9999 -9999 -9999 -9999 -9999 -9999 -9999 -9999 -9999 -9999 -9999 -9999 -9999 -9999 -9999 -9999 -9999 -9999 -9999 -9999 -9999 -9999 -9999 -9999 -9999 -9999 -9999 -9999 -9999 -9999 -9999 -9999 -9999 -9999 -9999 -9999 -9999 -9999 -9999 -9999 -9999 -9999 -9999 -9999 -9999 -9999 -9999 -9999 -9999 -9999 -9999 -9999 -9999 -9999 -9999 -9999 -9999 -9999 -9999 -9999 -9999 -9999 -9999 -9999 -9999 -9999 -9999 -9999 -9999 -9999 -9999 -9999 -9999 -9999 -9999 -9999 -9999 -9999 -9999 -9999 -9999 -9999 -9999 -9999 -9999 -9999 -9999 -9999 -9999 -9999 -9999 -9999 -9999 -9999 -9999 -9999 -9999 -9999 -9999 -9999 -9999 -9999 -9999 -9999 -9999 -9999 -9999 -9999 -9999 -9999 -9999 -9999 -9999 -9999 -9999 -9999 -9999 -9999 -9999 -9999 -9999 -9999 -9999 -9999 -9999 -9999 -9999 -9999 -9999 -9999 -9999 -9999 -9999 -9999 -9999 -9999 -9999 -9999 -9999 -9999 -9999 -9999 -9999 -9999 -9999 -9999 -9999 -9999 -9999 -9999 -9999 -9999 -9999 -9999 -9999 -9999 -9999 -9999 -9999 148 144 146 131 161 232 320 228 212 410 274 166 222 204 195 161 112 99 127 141 133 63 156 298 228 316 283 284 348 277 110 164 343 376 377 401 360 271 458 247 199 260 289 305 222 189 234 278 115 91 201 247 151 203 330 154 70 86 73 46 32 76 61 50 72 56 60 65 57 53 41 45 56 41 41 42 35 42 39 29 34 32 18 25 26 26 19 26 34 34 46 32 50 43 28 21 17 18 17 19 60 10 8 8 6 20 14 19 13 4 7 17 18 16 13 13 15 18 16 15 9 9 25 16 19 23 16 11 21 21 23 15 14 13 16 6 9 13 14 15 21 26 21 26 22 19 20 29 17 16 14 8 11 -9999 -9999 29 25 27 22 23 -9999 -9999 -9999 -9999 -9999 -9999 -9999 -9999 37 -9999 51 16 13 14 11 17 23 51 64 36 43 45 40 42 40 51 82 45 41 38 47 35 56 71 56 42 50 78 47 74 71 69 27 8 14 13 10 21 99 87 85 49 54 57 66 58 67 33 23 152 200 63 53 47 28 40 48 49 75 53 44 41 21 30 34 30 41 26 27 12 -9999 -9999 -9999 -9999 31 22 -9999 -9999 -9999 -9999 73 108 -9999 79 55 27 -9999 -9999 -9999 -9999 -9999 -9999 -9999 -9999 -9999 -9999 -9999 -9999 -9999 -9999 -9999 -9999 -9999 -9999 -9999 -9999 -9999 -9999 -9999 -9999 -9999 -9999 -9999 -9999 -9999 -9999 -9999 -9999
-9999 -9999 -9999 -9999 -9999 -9999 -9999 -9999 -9999 -9999 -9999 -9999 -9999 -9999 -9999 -9999 -9999 -9999 -9999 -9999 -9999 -9999 -9999 -9999 -9999 -9999 -9999 -9999 -9999 -9999 -9999 -9999 -9999 -9999 -9999 -9999 -9999 -9999 -9999 -9999 -9999 -9999 -9999 -9999 -9999 -9999 -9999 -9999 -9999 -9999 -9999 -9999 -9999 -9999 -9999 -9999 -9999 -9999 -9999 -9999 -9999 -9999 -9999 -9999 -9999 -9999 -9999 -9999 -9999 -9999 -9999 -9999 -9999 -9999 -9999 -9999 -9999 -9999 -9999 -9999 -9999 -9999 -9999 -9999 -9999 -9999 -9999 -9999 -9999 -9999 -9999 -9999 -9999 -9999 -9999 -9999 -9999 -9999 -9999 -9999 -9999 -9999 -9999 -9999 -9999 -9999 -9999 -9999 -9999 -9999 -9999 -9999 -9999 -9999 -9999 -9999 -9999 -9999 -9999 -9999 -9999 -9999 -9999 -9999 -9999 -9999 -9999 -9999 -9999 -9999 -9999 -9999 -9999 -9999 -9999 -9999 -9999 -9999 -9999 -9999 -9999 -9999 -9999 -9999 -9999 -9999 -9999 -9999 -9999 -9999 -9999 -9999 -9999 -9999 -9999 -9999 -9999 -9999 -9999 -9999 -9999 -9999 -9999 -9999 -9999 -9999 -9999 -9999 -9999 -9999 -9999 -9999 -9999 -9999 -9999 -9999 -9999 -9999 -9999 -9999 -9999 151 187 126 119 65 85 213 229 318 279 208 123 188 -9999 -9999 126 43 61 42 76 48 80 245 219 224 191 177 173 370 315 288 288 274 203 216 215 306 282 361 318 258 234 217 279 262 245 272 292 131 98 68 368 189 111 219 117 83 133 84 48 81 55 85 80 73 53 44 70 90 55 48 84 50 45 39 40 73 64 58 35 25 41 28 29 33 35 30 43 42 35 33 34 27 42 42 23 19 17 14 42 20 10 11 4 11 65 90 23 10 12 6 12 18 13 8 11 16 14 12 22 20 23 11 8 12 14 15 27 29 23 36 21 15 10 13 18 11 10 8 12 17 13 31 26 25 19 21 -9999 15 16 -9999 -9999 -9999 11 -9999 -9999 21 -9999 -9999 -9999 -9999 -9999 -9999 -9999 -9999 -9999 22 33 29 -9999 -9999 -9999 -9999 10 10 14 24 26 -9999 35 27 29 35 55 57 60 32 23 38 61 31 45 83 74 61 47 42 60 81 88 42 19 9 8 15 17 28 54 49 50 56 77 53 87 100 72 44 70 68 142 221 46 28 24 25 42 37 30 36 28 41 40 58 52 86 93 111 58 25 42 26 24 21 25 25 -9999 -9999 88 -9999 -9999 79 -9999 46 47 37 -9999 -9999 -9999 -9999 -9999 -9999 -9999 -9999 -9999 -9999 -9999 -9999 -9999 -9999 -9999 -9999 -9999 -9999 -9999 -9999 -9999 -9999 -9999 -9999 -9999 -9999 -9999 -9999 -9999 -9999 -9999 -9999 -9999
-9999 -9999 -9999 -9999 -9999 -9999 -9999 -9999 -9999 -9999 -9999 -9999 -9999 -9999 -9999 -9999 -9999 -9999 -9999 -9999 -9999 -9999 -9999 -9999 -9999 -9999 -9999 -9999 -9999 -9999 -9999 -9999 -9999 -9999 -9999 -9999 -9999 -9999 -9999 -9999 -9999 -9999 -9999 -9999 -9999 -9999 -9999 -9999 -9999 -9999 -9999 -9999 -9999 -9999 -9999 -9999 -9999 -9999 -9999 -9999 -9999 -9999 -9999 -9999 -9999 -9999 -9999 -9999 -9999 -9999 -9999 -9999 -9999 -9999 -9999 -9999 -9999 -9999 -9999 -9999 -9999 -9999 -9999 -9999 -9999 -9999 -9999 -9999 -9999 -9999 -9999 -9999 -9999 -9999 -9999 -9999 -9999 -9999 -9999 -9999 -9999 -9999 -9999 -9999 -9999 -9999 -9999 -9999 -9999 -9999 -9999 -9999 -9999 -9999 -9999 -9999 -9999 -9999 -9999 -9999 -9999 -9999 -9999 -9999 -9999 -9999 -9999 -9999 -9999 -9999 -9999 -9999 -9999 -9999 -9999 -9999 -9999 -9999 -9999 -9999 -9999 -9999 -9999 -9999 -9999 -9999 -9999 -9999 -9999 -9999 -9999 -9999 -9999 -9999 -9999 -9999 -9999 -9999 -9999 -9999 -9999 -9999 -9999 -9999 -9999 -9999 -9999 -9999 -9999 -9999 -9999 -9999 -9999 -9999 -9999 -9999 -9999 -9999 -9999 -9999 -9999 194 205 216 76 84 52 136 319 286 301 227 172 169 109 87 97 97 154 181 165 149 237 210 263 186 245 101 110 350 465 410 338 450 314 359 412 286 193 246 316 238 80 215 255 350 218 222 328 284 305 243 372 294 460 417 400 175 100 99 92 94 94 81 41 46 64 57 63 109 89 69 85 67 40 35 41 46 20 66 63 38 27 60 57 36 37 35 33 36 39 24 38 50 42 36 31 39 18 21 33 7 12 3 4 45 10 19 100 18 8 11 7 12 22 18 9 12 16 17 15 13 7 5 9 15 39 19 19 21 46 55 15 18 19 23 21 11 20 14 19 19 25 35 27 16 18 14 -9999 -9999 -9999 -9999 -9999 -9999 -9999 -9999 55 36 24 19 -9999 -9999 -9999 -9999 -9999 -9999 -9999 -9999 21 20 -9999 -9999 -9999 -9999 -9999 18 16 20 20 -9999 47 33 29 33 49 49 73 66 36 24 34 56 86 74 64 52 41 43 35 34 30 14 23 15 42 38 49 59 48 58 69 60 96 69 123 105 116 80 66 141 134 33 30 26 37 33 34 21 24 38 52 57 52 55 80 65 130 -9999 54 67 71 83 93 86 68 63 67 72 76 63 58 53 27 -9999 -9999 -9999 -9999 -9999 -9999 -9999 -9999 -9999 -9999 -9999 -9999 -9999 -9999 -9999 -9999 -9999 -9999 -9999 -9999 -9999 -9999 -9999 -9999 -9999 -9999 -9999 -9999 -9999 -9999 -9999 -9999 -9999 -9999 -9999 -9999
-9999 -9999 -9999 -9999 -9999 -9999 -9999 -9999 -9999 -9999 -9999 -9999 -9999 -9999 -9999 -9999 -9999 -9999 -9999 -9999 -9999 -9999 -9999 -9999 -9999 -9999 -9999 -9999 -9999 -9999 -9999 -9999 -9999 -9999 -9999 -9999 -9999 -9999 -9999 -9999 -9999 -9999 -9999 -9999 -9999 -9999 -9999 -9999 -9999 -9999 -9999 -9999 -9999 -9999 -9999 -9999 -9999 -9999 -9999 -9999 -9999 -9999 -9999 -9999 -9999 -9999 -9999 -9999 -9999 -9999 -9999 -9999 -9999 -9999 -9999 -9999 -9999 -9999 -9999 -9999 -9999 -9999 -9999 -9999 -9999 -9999 -9999 -9999 -9999 -9999 -9999 -9999 -9999 -9999 -9999 -9999 -9999 -9999 -9999 -9999 -9999 -9999 -9999 -9999 -9999 -9999 -9999 -9999 -9999 -9999 -9999 -9999 -9999 -9999 -9999 -9999 -9999 -9999 -9999 -9999 -9999 -9999 -9999 -9999 -9999 -9999 -9999 -9999 -9999 -9999 -9999 -9999 -9999 -9999 -9999 -9999 -9999 -9999 -9999 -9999 -9999 -9999 -9999 -9999 -9999 -9999 -9999 -9999 -9999 -9999 -9999 -9999 -9999 -9999 -9999 -9999 -9999 -9999 -9999 -9999 -9999 -9999 -9999 -9999 -9999 -9999 -9999 -9999 -9999 -9999 -9999 -9999 -9999 -9999 -9999 -9999 -9999 -9999 -9999 -9999 -9999 212 156 183 86 54 83 136 266 383 251 167 168 114 156 128 121 145 154 216 199 257 124 150 258 398 334 512 282 324 489 497 445 259 452 214 244 464 419 407 413 528 232 180 279 261 80 313 264 275 428 321 296 391 411 291 322 574 416 230 117 158 277 242 198 166 68 102 92 98 86 69 79 77 70 39 49 38 34 40 30 69 31 39 55 28 26 33 27 34 33 35 45 41 37 33 29 17 16 17 19 12 8 3 27 29 7 12 49 51 16 19 15 11 13 21 14 12 12 17 10 8 14 6 4 20 27 17 19 20 24 17 12 15 19 23 26 21 35 25 19 34 43 37 30 8 12 -9999 16 -9999 -9999 -9999 -9999 -9999 -9999 26 35 57 39 21 15 17 16 -9999 -9999 -9999 -9999 -9999 -9999 -9999 18 28 -9999 -9999 -9999 -9999 23 25 32 25 -9999 40 46 36 33 57 50 58 67 53 31 33 23 15 12 6 12 16 11 17 15 7 15 9 10 29 60 79 44 59 75 104 112 171 155 88 83 80 83 95 46 34 29 34 46 43 16 31 43 51 49 57 -9999 59 -9999 -9999 -9999 -9999 -9999 57 -9999 35 40 43 62 45 33 33 41 41 48 47 -9999 -9999 -9999 -9999 -9999 -9999 -9999 -9999 -9999 -9999 -9999 -9999 -9999 -9999 -9999 -9999 -9999 -9999 -9999 -9999 -9999 -9999 -9999 -9999 -9999 -9999 -9999 -9999 -9999 -9999 -9999 -9999 -9999 -9999 -9999 -9999 -9999
-9999 -9999 -9999 -9999 -9999 -9999 -9999 -9999 -9999 -9999 -9999 -9999 -9999 -9999 -9999 -9999 -9999 -9999 -9999 -9999 -9999 -9999 -9999 -9999 -9999 -9999 -9999 -9999 -9999 -9999 -9999 -9999 -9999 -9999 -9999 -9999 -9999 -9999 -9999 -9999 -9999 -9999 -9999 -9999 -9999 -9999 -9999 -9999 -9999 -9999 -9999 -9999 -9999 -9999 -9999 -9999 -9999 -9999 -9999 -9999 -9999 -9999 -9999 -9999 -9999 -9999 -9999 -9999 -9999 -9999 -9999 -9999 -9999 -9999 -9999 -9999 -9999 -9999 -9999 -9999 -9999 -9999 -9999 -9999 -9999 -9999 -9999 -9999 -9999 -9999 -9999 -9999 -9999 -9999 -9999 -9999 -9999 -9999 -9999 -9999 -9999 -9999 -9999 -9999 -9999 -9999 -9999 -9999 -9999 -9999 -9999 -9999 -9999 -9999 -9999 -9999 -9999 -9999 -9999 -9999 -9999 -9999 -9999 -9999 -9999 -9999 -9999 -9999 -9999 -9999 -9999 -9999 -9999 -9999 -9999 -9999 -9999 -9999 -9999 -9999 -9999 -9999 -9999 -9999 -9999 -9999 -9999 -9999 -9999 -9999 -9999 -9999 -9999 -9999 -9999 -9999 -9999 -9999 -9999 -9999 -9999 -9999 -9999 -9999 -9999 -9999 -9999 -9999 -9999 -9999 -9999 -9999 -9999 -9999 -9999 -9999 -9999 -9999 -9999 -9999 -9999 214 190 71 60 84 202 250 287 163 167 164 210 118 208 163 168 155 126 240 165 170 160 257 263 150 361 403 365 325 254 306 247 354 392 262 306 400 234 249 365 404 377 243 131 257 321 135 276 351 466 217 231 388 341 269 249 341 291 534 85 77 378 381 368 433 201 81 108 55 56 44 52 71 50 43 59 33 24 27 35 28 39 27 28 36 44 33 23 33 29 45 50 46 39 34 22 18 17 21 26 9 5 2 22 26 10 12 27 68 41 9 10 9 2 6 9 14 11 10 9 9 11 10 17 26 19 19 30 29 20 19 16 16 15 13 16 24 26 18 33 35 31 11 17 12 -9999 -9999 -9999 -9999 -9999 -9999 -9999 -9999 -9999 -9999 53 49 42 53 20 15 14 -9999 -9999 -9999 -9999 -9999 -9999 -9999 -9999 15 -9999 -9999 -9999 -9999 -9999 19 16 34 21 25 37 34 41 37 35 40 38 35 44 20 7 12 9 5 9 15 -9999 22 84 108 22 11 28 71 164 80 90 89 84 105 111 122 145 217 129 105 87 37 41 20 16 42 33 28 34 24 -9999 30 -9999 -9999 -9999 -9999 -9999 -9999 -9999 75 85 81 34 52 42 36 44 31 36 32 32 36 -9999 -9999 -9999 -9999 -9999 -9999 -9999 -9999 -9999 -9999 -9999 -9999 -9999 -9999 -9999 -9999 -9999 -9999 -9999 -9999 -9999 -9999 -9999 -9999 -9999 -9999 -9999 -9999 -9999 -9999 -9999 -9999 -9999 -9999 -9999 -9999 -9999 -9999 -9999
-9999 -9999 -9999 -9999 -9999 -9999 -9999 -9999 -9999 -9999 -9999 -9999 -9999 -9999 -9999 -9999 -9999 -9999 -9999 -9999 -9999 -9999 -9999 -9999 -9999 -9999 -9999 -9999 -9999 -9999 -9999 -9999 -9999 -9999 -9999 -9999 -9999 -9999 -9999 -9999 -9999 -9999 -9999 -9999 -9999 -9999 -9999 -9999 -9999 -9999 -9999 -9999 -9999 -9999 -9999 -9999 -9999 -9999 -9999 -9999 -9999 -9999 -9999 -9999 -9999 -9999 -9999 -9999 -9999 -9999 -9999 -9999 -9999 -9999 -9999 -9999 -9999 -9999 -9999 -9999 -9999 -9999 -9999 -9999 -9999 -9999 -9999 -9999 -9999 -9999 -9999 -9999 -9999 -9999 -9999 -9999 -9999 -9999 -9999 -9999 -9999 -9999 -9999 -9999 -9999 -9999 -9999 -9999 -9999 -9999 -9999 -9999 -9999 -9999 -9999 -9999 -9999 -9999 -9999 -9999 -9999 -9999 -9999 -9999 -9999 -9999 -9999 -9999 -9999 -9999 -9999 -9999 -9999 -9999 -9999 -9999 -9999 -9999 -9999 -9999 -9999 -9999 -9999 -9999 -9999 -9999 -9999 -9999 -9999 -9999 -9999 -9999 -9999 -9999 -9999 -9999 -9999 -9999 -9999 -9999 -9999 -9999 -9999 -9999 -9999 -9999 -9999 -9999 -9999 -9999 -9999 -9999 -9999 -9999 -9999 -9999 -9999 -9999 -9999 -9999 -9999 171 221 74 57 85 229 263 240 256 171 140 135 124 232 213 219 239 237 224 157 254 225 277 420 117 162 266 201 468 269 289 208 297 226 240 295 381 294 255 272 347 337 235 271 295 158 188 222 258 289 300 208 164 163 255 232 285 295 510 144 80 38 86 459 347 264 516 83 72 63 51 54 46 48 46 36 82 65 111 38 27 29 26 22 42 35 28 25 39 46 56 -9999 36 34 22 13 20 20 35 29 7 6 3 14 40 7 8 21 21 53 37 8 7 13 11 7 5 5 7 7 9 27 29 28 29 27 23 45 21 20 20 17 18 17 11 21 26 17 17 26 21 14 12 17 -9999 16 19 -9999 -9999 -9999 -9999 46 37 39 47 34 26 21 20 38 34 28 25 -9999 -9999 -9999 -9999 -9999 -9999 -9999 -9999 34 -9999 -9999 -9999 36 33 20 18 20 21 24 29 30 26 28 31 29 25 22 19 11 8 10 12 15 37 102 132 101 153 118 -9999 71 128 155 100 111 132 170 131 101 138 165 118 74 34 35 27 35 21 48 44 49 26 21 19 -9999 -9999 -9999 -9999 -9999 -9999 69 81 68 23 31 37 37 36 38 41 -9999 37 -9999 -9999 -9999 -9999 -9999 -9999 -9999 -9999 -9999 -9999 -9999 -9999 -9999 -9999 -9999 -9999 -9999 -9999 -9999 -9999 -9999 -9999 -9999 -9999 -9999 -9999 -9999 -9999 -9999 -9999 -9999 -9999 -9999 -9999 -9999 -9999 -9999 -9999 -9999 -9999 -9999 -9999 -9999
-9999 -9999 -9999 -9999 -9999 -9999 -9999 -9999 -9999 -9999 -9999 -9999 -9999 -9999 -9999 -9999 -9999 -9999 -9999 -9999 -9999 -9999 -9999 -9999 -9999 -9999 -9999 -9999 -9999 -9999 -9999 -9999 -9999 -9999 -9999 -9999 -9999 -9999 -9999 -9999 -9999 -9999 -9999 -9999 -9999 -9999 -9999 -9999 -9999 -9999 -9999 -9999 -9999 -9999 -9999 -9999 -9999 -9999 -9999 -9999 -9999 -9999 -9999 -9999 -9999 -9999 -9999 -9999 -9999 -9999 -9999 -9999 -9999 -9999 -9999 -9999 -9999 -9999 -9999 -9999 -9999 -9999 -9999 -9999 -9999 -9999 -9999 -9999 -9999 -9999 -9999 -9999 -9999 -9999 -9999 -9999 -9999 -9999 -9999 -9999 -9999 -9999 -9999 -9999 -9999 -9999 -9999 -9999 -9999 -9999 -9999 -9999 -9999 -9999 -9999 -9999 -9999 -9999 -9999 -9999 -9999 -9999 -9999 -9999 -9999 -9999 -9999 -9999 -9999 -9999 -9999 -9999 -9999 -9999 -9999 -9999 -9999 -9999 -9999 -9999 -9999 -9999 -9999 -9999 -9999 -9999 -9999 -9999 -9999 -9999 -9999 -9999 -9999 -9999 -9999 -9999 -9999 -9999 -9999 -9999 -9999 -9999 -9999 -9999 -9999 -9999 -9999 -9999 -9999 -9999 -9999 -9999 -9999 -9999 -9999 -9999 -9999 -9999 -9999 -9999 92 158 163 112 45 105 233 229 213 320 192 88 146 165 207 357 224 188 312 212 205 210 205 182 187 193 254 295 327 270 79 349 243 211 189 244 231 305 233 346 306 434 338 294 254 192 273 139 181 225 227 148 186 128 78 114 233 364 471 324 148 121 61 55 85 364 332 302 516 145 53 50 68 47 45 61 40 58 177 159 153 131 87 38 24 46 52 56 55 52 58 53 35 40 31 16 18 23 26 43 43 27 8 5 14 37 11 16 10 30 23 45 47 12 5 13 17 20 6 6 9 28 20 17 16 34 47 53 51 44 28 22 23 18 26 24 19 12 11 18 22 14 6 15 19 -9999 20 -9999 -9999 -9999 -9999 -9999 26 34 25 23 27 20 15 24 35 31 25 18 -9999 -9999 -9999 -9999 -9999 -9999 -9999 -9999 18 52 88 -9999 -9999 34 46 -9999 17 -9999 22 22 -9999 31 35 32 23 24 19 17 17 17 14 23 69 78 56 58 74 108 113 -9999 78 211 115 94 123 130 122 196 160 196 118 100 52 41 25 57 52 41 44 23 39 21 -9999 -9999 -9999 -9999 -9999 -9999 -9999 -9999 39 29 34 38 35 46 -9999 33 -9999 -9999 -9999 -9999 -9999 -9999 -9999 -9999 -9999 -9999 -9999 -9999 -9999 -9999 -9999 -9999 -9999 -9999 -9999 -9999 -9999 -9999 -9999 -9999 -9999 -9999 -9999 -9999 -9999 -9999 -9999 -9999 -9999 -9999 -9999 -9999 -9999 -9999 -9999 -9999 -9999 -9999 -9999 -9999 -9999 -9999 -9999
-9999 -9999 -9999 -9999 -9999 -9999 -9999 -9999 -9999 -9999 -9999 -9999 -9999 -9999 -9999 -9999 -9999 -9999 -9999 -9999 -9999 -9999 -9999 -9999 -9999 -9999 -9999 -9999 -9999 -9999 -9999 -9999 -9999 -9999 -9999 -9999 -9999 -9999 -9999 -9999 -9999 -9999 -9999 -9999 -9999 -9999 -9999 -9999 -9999 -9999 -9999 -9999 -9999 -9999 -9999 -9999 -9999 -9999 -9999 -9999 -9999 -9999 -9999 -9999 -9999 -9999 -9999 -9999 -9999 -9999 -9999 -9999 -9999 -9999 -9999 -9999 -9999 -9999 -9999 -9999 -9999 -9999 -9999 -9999 -9999 -9999 -9999 -9999 -9999 -9999 -9999 -9999 -9999 -9999 -9999 -9999 -9999 -9999 -9999 -9999 -9999 -9999 -9999 -9999 -9999 -9999 -9999 -9999 -9999 -9999 -9999 -9999 -9999 -9999 -9999 -9999 -9999 -9999 -9999 -9999 -9999 -9999 -9999 -9999 -9999 -9999 -9999 -9999 -9999 -9999 -9999 -9999 -9999 -9999 -9999 -9999 -9999 -9999 -9999 -9999 -9999 -9999 -9999 -9999 -9999 -9999 -9999 -9999 -9999 -9999 -9999 -9999 -9999 -9999 -9999 -9999 -9999 -9999 -9999 -9999 -9999 -9999 -9999 -9999 -9999 -9999 -9999 -9999 -9999 -9999 -9999 -9999 -9999 -9999 -9999 -9999 -9999 -9999 -9999 -9999 159 133 164 65 194 157 248 250 224 236 136 65 112 152 138 155 158 217 211 269 246 349 303 227 198 144 195 187 198 151 106 227 239 319 203 212 195 223 260 331 325 380 280 357 292 305 192 292 170 80 115 129 203 120 157 158 243 320 432 527 217 87 101 65 56 99 358 351 380 331 61 53 65 45 59 51 28 31 87 103 134 167 203 93 55 49 48 66 56 27 27 27 23 39 37 42 38 43 56 31 23 47 17 6 8 20 21 8 17 12 26 22 26 44 34 11 6 9 18 15 23 16 10 17 23 19 21 31 63 66 55 32 27 26 17 6 8 11 10 28 18 12 13 15 33 20 18 -9999 -9999 -9999 -9999 -9999 22 48 39 23 17 12 16 49 27 21 -9999 -9999 -9999 -9999 -9999 -9999 -9999 -9999 31 21 23 37 48 50 85 38 26 10 18 12 24 29 20 35 28 28 31 26 30 -9999 16 16 29 46 75 38 43 57 132 236 194 51 139 195 133 112 99 84 219 293 255 115 95 61 30 31 24 46 62 -9999 -9999 -9999 -9999 -9999 -9999 -9999 -9999 -9999 -9999 -9999 16 28 14 24 15 21 26 -9999 -9999 -9999 -9999 -9999 -9999 -9999 -9999 -9999 -9999 -9999 -9999 -9999 -9999 -9999 -9999 -9999 -9999 -9999 -9999 -9999 -9999 -9999 -9999 -9999 -9999 -9999 -9999 -9999 -9999 -9999 -9999 -9999 -9999 -9999 -9999 -9999 -9999 -9999 -9999 -9999 -9999 -9999 -9999 -9999 -9999 -9999 -9999 -9999 -9999
-9999 -9999 -9999 -9999 -9999 -9999 -9999 -9999 -9999 -9999 -9999 -9999 -9999 -9999 -9999 -9999 -9999 -9999 -9999 -9999 -9999 -9999 -9999 -9999 -9999 -9999 -9999 -9999 -9999 -9999 -9999 -9999 -9999 -9999 -9999 -9999 -9999 -9999 -9999 -9999 -9999 -9999 -9999 -9999 -9999 -9999 -9999 -9999 -9999 -9999 -9999 -9999 -9999 -9999 -9999 -9999 -9999 -9999 -9999 -9999 -9999 -9999 -9999 -9999 -9999 -9999 -9999 -9999 -9999 -9999 -9999 -9999 -9999 -9999 -9999 -9999 -9999 -9999 -9999 -9999 -9999 -9999 -9999 -9999 -9999 -9999 -9999 -9999 -9999 -9999 -9999 -9999 -9999 -9999 -9999 -9999 -9999 -9999 -9999 -9999 -9999 -9999 -9999 -9999 -9999 -9999 -9999 -9999 -9999 -9999 -9999 -9999 -9999 -9999 -9999 -9999 -9999 -9999 -9999 -9999 -9999 -9999 -9999 -9999 -9999 -9999 -9999 -9999 -9999 -9999 -9999 -9999 -9999 -9999 -9999 -9999 -9999 -9999 -9999 -9999 -9999 -9999 -9999 -9999 -9999 -9999 -9999 -9999 -9999 -9999 -9999 -9999 -9999 -9999 -9999 -9999 -9999 -9999 -9999 -9999 -9999 -9999 -9999 -9999 -9999 -9999 -9999 -9999 -9999 -9999 -9999 -9999 -9999 -9999 -9999 -9999 -9999 -9999 -9999 -9999 120 110 98 66 118 184 194 303 279 296 304 96 77 160 187 185 108 133 164 149 135 139 153 166 165 179 251 63 74 86 185 238 309 338 253 294 312 258 300 321 258 452 368 336 429 305 72 32 77 89 85 72 120 243 193 189 267 260 396 398 183 123 89 76 44 59 71 405 183 367 50 46 58 53 37 38 51 55 54 137 163 122 116 143 38 37 51 51 36 30 31 34 40 45 34 27 35 40 -9999 40 31 29 61 6 6 12 26 17 15 14 16 18 22 19 17 30 37 20 8 6 18 7 10 12 8 16 25 25 36 64 69 42 42 31 26 9 6 10 20 33 16 12 12 -9999 16 24 -9999 -9999 -9999 -9999 -9999 8 24 22 20 32 12 26 40 14 18 19 -9999 -9999 -9999 -9999 -9999 -9999 -9999 -9999 30 18 34 38 15 12 75 36 35 32 48 51 73 44 55 47 -9999 13 21 10 -9999 -9999 17 61 36 56 68 50 48 111 189 252 142 40 206 176 93 111 107 217 254 211 152 58 38 40 29 27 23 -9999 -9999 -9999 -9999 -9999 -9999 -9999 -9999 -9999 -9999 -9999 -9999 -9999 16 23 32 19 10 26 -9999 -9999 -9999 -9999 -9999 -9999 -9999 -9999 -9999 -9999 -9999 -9999 -9999 -9999 -9999 -9999 -9999 -9999 -9999 -9999 -9999 -9999 -9999 -9999 -9999 -9999 -9999 -9999 -9999 -9999 -9999 -9999 -9999 -9999 -9999 -9999 -9999 -9999 -9999 -9999 -9999 -9999 -9999 -9999 -9999 -9999 -9999 -9999 -9999 -9999 -9999
-9999 -9999 -9999 -9999 -9999 -9999 -9999 -9999 -9999 -9999 -9999 -9999 -9999 -9999 -9999 -9999 -9999 -9999 -9999 -9999 -9999 -9999 -9999 -9999 -9999 -9999 -9999 -9999 -9999 -9999 -9999 -9999 -9999 -9999 -9999 -9999 -9999 -9999 -9999 -9999 -9999 -9999 -9999 -9999 -9999 -9999 -9999 -9999 -9999 -9999 -9999 -9999 -9999 -9999 -9999 -9999 -9999 -9999 -9999 -9999 -9999 -9999 -9999 -9999 -9999 -9999 -9999 -9999 -9999 -9999 -9999 -9999 -9999 -9999 -9999 -9999 -9999 -9999 -9999 -9999 -9999 -9999 -9999 -9999 -9999 -9999 -9999 -9999 -9999 -9999 -9999 -9999 -9999 -9999 -9999 -9999 -9999 -9999 -9999 -9999 -9999 -9999 -9999 -9999 -9999 -9999 -9999 -9999 -9999 -9999 -9999 -9999 -9999 -9999 -9999 -9999 -9999 -9999 -9999 -9999 -9999 -9999 -9999 -9999 -9999 -9999 -9999 -9999 -9999 -9999 -9999 -9999 -9999 -9999 -9999 -9999 -9999 -9999 -9999 -9999 -9999 -9999 -9999 -9999 -9999 -9999 -9999 -9999 -9999 -9999 -9999 -9999 -9999 -9999 -9999 -9999 -9999 -9999 -9999 -9999 -9999 -9999 -9999 -9999 -9999 -9999 -9999 -9999 -9999 -9999 -9999 -9999 -9999 -9999 -9999 -9999 -9999 -9999 -9999 -9999 86 122 78 77 136 235 270 296 -9999 134 90 259 172 85 48 97 71 76 102 107 86 124 128 118 230 217 172 117 60 37 62 195 231 224 240 292 292 243 322 343 306 277 223 377 350 125 21 20 22 58 150 201 277 410 181 222 207 289 307 253 299 166 86 82 65 49 57 228 193 197 54 38 73 53 41 25 52 38 36 99 202 152 123 141 42 49 37 42 33 29 29 32 39 45 50 39 25 29 44 39 20 27 23 13 9 7 18 21 21 18 13 18 24 16 17 6 14 17 13 10 9 12 14 11 8 14 17 27 33 45 63 65 63 61 45 38 26 18 26 10 24 19 16 27 26 19 -9999 -9999 -9999 -9999 -9999 23 21 21 27 20 18 28 12 9 12 -9999 -9999 8 15 13 -9999 -9999 -9999 -9999 31 11 13 14 20 27 42 45 46 37 -9999 -9999 -9999 -9999 -9999 -9999 -9999 -9999 -9999 -9999 -9999 -9999 70 86 131 73 52 55 101 130 106 145 127 57 213 146 114 112 141 163 -9999 157 76 61 32 36 -9999 -9999 -9999 -9999 -9999 -9999 -9999 -9999 -9999 -9999 -9999 -9999 -9999 -9999 -9999 -9999 -9999 -9999 14 21 29 -9999 -9999 -9999 -9999 -9999 -9999 -9999 -9999 -9999 -9999 -9999 -9999 -9999 -9999 -9999 -9999 -9999 -9999 -9999 -9999 -9999 -9999 -9999 -9999 -9999 -9999 -9999 -9999 -9999 -9999 -9999 -9999 -9999 -9999 -9999 -9999 -9999 -9999 -9999 -9999 -9999 -9999 -9999 -9999 -9999 -9999 -9999 -9999 -9999 -9999 -9999 -9999
-9999 -9999 -9999 -9999 -9999 -9999 -9999 -9999 -9999 -9999 -9999 -9999 -9999 -9999 -9999 -9999 -9999 -9999 -9999 -9999 -9999 -9999 -9999 -9999 -9999 -9999 -9999 -9999 -9999 -9999 -9999 -9999 -9999 -9999 -9999 -9999 -9999 -9999 -9999 -9999 -9999 -9999 -9999 -9999 -9999 -9999 -9999 -9999 -9999 -9999 -9999 -9999 -9999 -9999 -9999 -9999 -9999 -9999 -9999 -9999 -9999 -9999 -9999 -9999 -9999 -9999 -9999 -9999 -9999 -9999 -9999 -9999 -9999 -9999 -9999 -9999 -9999 -9999 -9999 -9999 -9999 -9999 -9999 -9999 -9999 -9999 -9999 -9999 -9999 -9999 -9999 -9999 -9999 -9999 -9999 -9999 -9999 -9999 -9999 -9999 -9999 -9999 -9999 -9999 -9999 -9999 -9999 -9999 -9999 -9999 -9999 -9999 -9999 -9999 -9999 -9999 -9999 -9999 -9999 -9999 -9999 -9999 -9999 -9999 -9999 -9999 -9999 -9999 -9999 -9999 -9999 -9999 -9999 -9999 -9999 -9999 -9999 -9999 -9999 -9999 -9999 -9999 -9999 -9999 -9999 -9999 -9999 -9999 -9999 -9999 -9999 -9999 -9999 -9999 -9999 -9999 -9999 -9999 -9999 -9999 -9999 -9999 -9999 -9999 -9999 -9999 -9999 -9999 -9999 -9999 -9999 -9999 -9999 -9999 -9999 -9999 -9999 -9999 -9999 -9999 131 138 139 119 222 225 261 321 203 135 44 153 120 84 67 61 91 61 102 96 65 46 151 191 141 98 137 177 201 -9999 36 51 200 169 343 258 287 255 227 227 284 350 222 90 95 45 35 40 18 109 170 245 316 353 357 243 149 276 218 354 285 270 259 229 273 227 206 333 217 109 83 63 94 37 43 36 69 34 38 39 104 125 143 104 46 49 40 61 59 53 58 43 40 39 49 33 28 32 48 53 20 12 9 24 17 11 11 15 27 16 19 14 17 17 13 11 14 14 8 9 6 15 10 7 9 14 12 16 27 32 29 65 48 40 43 40 34 22 42 19 15 11 26 15 25 19 -9999 -9999 -9999 -9999 -9999 27 18 20 28 14 20 14 8 7 6 3 14 14 5 6 -9999 -9999 -9999 -9999 23 16 8 13 25 26 33 34 -9999 -9999 -9999 -9999 -9999 -9999 -9999 -9999 -9999 -9999 -9999 -9999 -9999 -9999 74 95 57 58 64 67 108 100 113 79 150 60 119 159 118 121 85 134 69 89 59 44 26 17 -9999 -9999 -9999 -9999 -9999 -9999 -9999 -9999 -9999 -9999 -9999 -9999 -9999 -9999 -9999 -9999 -9999 -9999 18 13 -9999 -9999 -9999 -9999 -9999 -9999 -9999 -9999 -9999 -9999 -9999 -9999 -9999 -9999 -9999 -9999 -9999 -9999 -9999 -9999 -9999 -9999 -9999 -9999 -9999 -9999 -9999 -9999 -9999 -9999 -9999 -9999 -9999 -9999 -9999 -9999 -9999 -9999 -9999 -9999 -9999 -9999 -9999 -9999 -9999 -9999 -9999 -9999 -9999 -9999 -9999 -9999 -9999
-9999 -9999 -9999 -9999 -9999 -9999 -9999 -9999 -9999 -9999 -9999 -9999 -9999 -9999 -9999 -9999 -9999 -9999 -9999 -9999 -9999 -9999 -9999 -9999 -9999 -9999 -9999 -9999 -9999 -9999 -9999 -9999 -9999 -9999 -9999 -9999 -9999 -9999 -9999 -9999 -9999 -9999 -9999 -9999 -9999 -9999 -9999 -9999 -9999 -9999 -9999 -9999 -9999 -9999 -9999 -9999 -9999 -9999 -9999 -9999 -9999 -9999 -9999 -9999 -9999 -9999 -9999 -9999 -9999 -9999 -9999 -9999 -9999 -9999 -9999 -9999 -9999 -9999 -9999 -9999 -9999 -9999 -9999 -9999 -9999 -9999 -9999 -9999 -9999 -9999 -9999 -9999 -9999 -9999 -9999 -9999 -9999 -9999 -9999 -9999 -9999 -9999 -9999 -9999 -9999 -9999 -9999 -9999 -9999 -9999 -9999 -9999 -9999 -9999 -9999 -9999 -9999 -9999 -9999 -9999 -9999 -9999 -9999 -9999 -9999 -9999 -9999 -9999 -9999 -9999 -9999 -9999 -9999 -9999 -9999 -9999 -9999 -9999 -9999 -9999 -9999 -9999 -9999 -9999 -9999 -9999 -9999 -9999 -9999 -9999 -9999 -9999 -9999 -9999 -9999 -9999 -9999 -9999 -9999 -9999 -9999 -9999 -9999 -9999 -9999 -9999 -9999 -9999 -9999 -9999 -9999 -9999 -9999 -9999 -9999 -9999 -9999 -9999 -9999 46 126 162 207 90 212 259 292 238 220 135 101 170 50 40 31 54 86 103 68 49 34 19 70 126 126 111 204 268 147 309 99 53 40 171 226 157 134 103 117 85 193 135 100 44 63 52 53 34 173 124 110 252 340 231 310 381 169 351 429 349 89 73 54 50 156 118 146 264 141 91 48 67 73 54 42 35 41 38 41 43 56 80 107 42 31 30 60 57 49 61 34 53 54 53 31 45 49 46 40 55 63 -9999 13 17 31 15 27 29 15 16 23 21 11 16 14 15 15 23 7 8 5 10 8 13 9 13 20 12 17 29 42 48 58 42 51 44 48 59 39 16 15 11 24 18 20 -9999 -9999 -9999 -9999 -9999 -9999 -9999 12 15 14 11 17 14 8 8 6 8 21 14 9 5 25 -9999 -9999 9 22 16 15 20 28 31 33 68 -9999 -9999 10 14 23 31 33 29 -9999 28 27 21 16 11 28 52 100 104 70 85 76 132 128 119 57 102 189 126 107 119 121 95 60 51 73 35 -9999 -9999 -9999 -9999 -9999 -9999 -9999 -9999 -9999 -9999 -9999 -9999 -9999 -9999 -9999 -9999 -9999 -9999 -9999 -9999 -9999 -9999 -9999 -9999 -9999 -9999 -9999 -9999 -9999 -9999 -9999 -9999 -9999 -9999 -9999 -9999 -9999 -9999 -9999 -9999 -9999 -9999 -9999 -9999 -9999 -9999 -9999 -9999 -9999 -9999 -9999 -9999 -9999 -9999 -9999 -9999 -9999 -9999 -9999 -9999 -9999 -9999 -9999 -9999 -9999 -9999 -9999 -9999 -9999 -9999 -9999 -9999 -9999 -9999 -9999
-9999 -9999 -9999 -9999 -9999 -9999 -9999 -9999 -9999 -9999 -9999 -9999 -9999 -9999 -9999 -9999 -9999 -9999 -9999 -9999 -9999 -9999 -9999 -9999 -9999 -9999 -9999 -9999 -9999 -9999 -9999 -9999 -9999 -9999 -9999 -9999 -9999 -9999 -9999 -9999 -9999 -9999 -9999 -9999 -9999 -9999 -9999 -9999 -9999 -9999 -9999 -9999 -9999 -9999 -9999 -9999 -9999 -9999 -9999 -9999 -9999 -9999 -9999 -9999 -9999 -9999 -9999 -9999 -9999 -9999 -9999 -9999 -9999 -9999 -9999 -9999 -9999 -9999 -9999 -9999 -9999 -9999 -9999 -9999 -9999 -9999 -9999 -9999 -9999 -9999 -9999 -9999 -9999 -9999 -9999 -9999 -9999 -9999 -9999 -9999 -9999 -9999 -9999 -9999 -9999 -9999 -9999 -9999 -9999 -9999 -9999 -9999 -9999 -9999 -9999 -9999 -9999 -9999 -9999 -9999 -9999 -9999 -9999 -9999 -9999 -9999 -9999 -9999 -9999 -9999 -9999 -9999 -9999 -9999 -9999 -9999 -9999 -9999 -9999 -9999 -9999 -9999 -9999 -9999 -9999 -9999 -9999 -9999 -9999 -9999 -9999 -9999 -9999 -9999 -9999 -9999 -9999 -9999 -9999 -9999 -9999 -9999 -9999 -9999 -9999 -9999 -9999 -9999 -9999 -9999 -9999 -9999 -9999 -9999 -9999 -9999 -9999 -9999 -9999 112 128 186 183 149 230 242 294 255 202 41 95 208 155 211 117 74 109 85 70 59 117 77 188 192 110 85 75 51 116 218 303 75 75 59 119 281 267 211 178 70 41 44 44 38 64 30 17 163 152 83 73 166 264 244 224 113 106 369 258 372 312 60 44 51 56 49 80 46 48 66 35 44 60 48 43 49 44 64 59 46 39 41 36 27 39 48 43 49 24 25 30 30 33 19 21 28 30 27 33 27 43 57 53 22 37 17 19 39 24 26 31 19 13 9 16 12 11 21 12 12 9 10 6 14 15 13 16 16 14 29 29 36 59 49 43 43 52 46 24 15 14 8 11 21 24 15 -9999 -9999 -9999 -9999 -9999 -9999 7 22 25 17 16 9 11 12 12 11 12 19 16 7 16 -9999 12 16 14 18 24 19 17 17 8 11 8 24 -9999 12 24 35 37 20 31 25 20 12 41 72 80 131 103 107 107 97 119 129 103 73 61 130 215 160 122 102 85 65 52 44 34 -9999 -9999 -9999 -9999 -9999 -9999 -9999 -9999 -9999 -9999 -9999 -9999 -9999 -9999 -9999 -9999 -9999 -9999 -9999 -9999 -9999 -9999 -9999 -9999 -9999 -9999 -9999 -9999 -9999 -9999 -9999 -9999 -9999 -9999 -9999 -9999 -9999 -9999 -9999 -9999 -9999 -9999 -9999 -9999 -9999 -9999 -9999 -9999 -9999 -9999 -9999 -9999 -9999 -9999 -9999 -9999 -9999 -9999 -9999 -9999 -9999 -9999 -9999 -9999 -9999 -9999 -9999 -9999 -9999 -9999 -9999 -9999 -9999 -9999 -9999 -9999
-9999 -9999 -9999 -9999 -9999 -9999 -9999 -9999 -9999 -9999 -9999 -9999 -9999 -9999 -9999 -9999 -9999 -9999 -9999 -9999 -9999 -9999 -9999 -9999 -9999 -9999 -9999 -9999 -9999 -9999 -9999 -9999 -9999 -9999 -9999 -9999 -9999 -9999 -9999 -9999 -9999 -9999 -9999 -9999 -9999 -9999 -9999 -9999 -9999 -9999 -9999 -9999 -9999 -9999 -9999 -9999 -9999 -9999 -9999 -9999 -9999 -9999 -9999 -9999 -9999 -9999 -9999 -9999 -9999 -9999 -9999 -9999 -9999 -9999 -9999 -9999 -9999 -9999 -9999 -9999 -9999 -9999 -9999 -9999 -9999 -9999 -9999 -9999 -9999 -9999 -9999 -9999 -9999 -9999 -9999 -9999 -9999 -9999 -9999 -9999 -9999 -9999 -9999 -9999 -9999 -9999 -9999 -9999 -9999 -9999 -9999 -9999 -9999 -9999 -9999 -9999 -9999 -9999 -9999 -9999 -9999 -9999 -9999 -9999 -9999 -9999 -9999 -9999 -9999 -9999 -9999 -9999 -9999 -9999 -9999 -9999 -9999 -9999 -9999 -9999 -9999 -9999 -9999 -9999 -9999 -9999 -9999 -9999 -9999 -9999 -9999 -9999 -9999 -9999 -9999 -9999 -9999 -9999 -9999 -9999 -9999 -9999 -9999 -9999 -9999 -9999 -9999 -9999 -9999 -9999 -9999 -9999 -9999 -9999 -9999 -9999 -9999 -9999 -9999 168 268 207 170 226 230 229 240 297 260 60 75 169 109 346 128 93 116 92 92 53 76 246 344 178 166 47 75 59 163 176 186 309 162 99 112 63 65 55 52 25 34 31 27 70 41 133 221 196 247 141 88 169 184 269 201 67 44 85 333 226 354 338 80 72 173 123 125 164 119 89 94 286 145 176 81 48 44 46 71 60 116 124 107 27 80 86 37 29 22 27 31 24 31 29 34 33 33 35 38 35 38 37 32 42 34 56 45 31 27 22 28 23 18 12 20 18 12 10 6 7 4 10 9 16 12 11 13 10 17 14 39 35 46 31 29 23 28 30 22 17 15 19 20 20 12 16 -9999 -9999 -9999 -9999 -9999 -9999 9 14 15 17 10 15 10 11 11 20 23 17 36 19 8 5 5 8 10 18 21 22 12 13 -9999 -9999 -9999 -9999 -9999 51 64 86 67 59 95 96 62 33 74 95 93 74 61 61 57 100 112 87 106 25 123 128 162 98 104 78 71 96 44 30 21 13 -9999 -9999 -9999 -9999 -9999 -9999 -9999 -9999 -9999 -9999 -9999 -9999 -9999 -9999 -9999 -9999 -9999 -9999 -9999 -9999 -9999 -9999 -9999 -9999 -9999 -9999 -9999 -9999 -9999 -9999 -9999 -9999 -9999 -9999 -9999 -9999 -9999 -9999 -9999 -9999 -9999 -9999 -9999 -9999 -9999 -9999 -9999 -9999 -9999 -9999 -9999 -9999 -9999 -9999 -9999 -9999 -9999 -9999 -9999 -9999 -9999 -9999 -9999 -9999 -9999 -9999 -9999 -9999 -9999 -9999 -9999 -9999 -9999 -9999 -9999
-9999 -9999 -9999 -9999 -9999 -9999 -9999 -9999 -9999 -9999 -9999 -9999 -9999 -9999 -9999 -9999 -9999 -9999 -9999 -9999 -9999 -9999 -9999 -9999 -9999 -9999 -9999 -9999 -9999 -9999 -9999 -9999 -9999 -9999 -9999 -9999 -9999 -9999 -9999 -9999 -9999 -9999 -9999 -9999 -9999 -9999 -9999 -9999 -9999 -9999 -9999 -9999 -9999 -9999 -9999 -9999 -9999 -9999 -9999 -9999 -9999 -9999 -9999 -9999 -9999 -9999 -9999 -9999 -9999 -9999 -9999 -9999 -9999 -9999 -9999 -9999 -9999 -9999 -9999 -9999 -9999 -9999 -9999 -9999 -9999 -9999 -9999 -9999 -9999 -9999 -9999 -9999 -9999 -9999 -9999 -9999 -9999 -9999 -9999 -9999 -9999 -9999 -9999 -9999 -9999 -9999 -9999 -9999 -9999 -9999 -9999 -9999 -9999 -9999 -9999 -9999 -9999 -9999 -9999 -9999 -9999 -9999 -9999 -9999 -9999 -9999 -9999 -9999 -9999 -9999 -9999 -9999 -9999 -9999 -9999 -9999 -9999 -9999 -9999 -9999 -9999 -9999 -9999 -9999 -9999 -9999 -9999 -9999 -9999 -9999 -9999 -9999 -9999 -9999 -9999 -9999 -9999 -9999 -9999 -9999 -9999 -9999 -9999 -9999 -9999 -9999 -9999 -9999 -9999 -9999 -9999 -9999 -9999 -9999 -9999 -9999 -9999 -9999 -9999 237 297 263 220 248 186 152 215 317 235 159 151 121 197 160 206 -9999 130 284 123 53 86 188 453 90 43 106 109 67 109 113 79 51 161 136 66 99 91 99 93 46 30 17 114 48 209 250 173 235 256 188 242 238 169 242 198 115 43 42 37 249 360 224 186 127 57 70 79 97 78 100 137 169 157 234 225 121 52 55 103 37 26 36 75 73 45 39 19 36 32 26 24 29 28 24 16 19 23 31 21 17 13 19 23 29 29 31 23 36 24 35 27 26 20 24 19 14 17 6 6 11 6 12 10 11 16 13 12 15 10 19 18 20 27 43 35 29 19 23 23 20 15 11 18 16 12 15 -9999 -9999 -9999 -9999 -9999 -9999 11 16 26 17 12 8 10 8 8 13 15 33 18 5 4 3 4 9 18 -9999 -9999 -9999 15 -9999 -9999 -9999 -9999 -9999 79 68 61 51 79 129 89 98 79 115 88 67 69 69 74 69 67 84 104 140 112 63 114 123 119 106 86 62 33 89 24 16 16 12 -9999 -9999 -9999 -9999 -9999 -9999 -9999 -9999 -9999 -9999 -9999 -9999 -9999 -9999 -9999 -9999 -9999 -9999 -9999 -9999 -9999 -9999 -9999 -9999 -9999 -9999 -9999 -9999 -9999 -9999 -9999 -9999 -9999 -9999 -9999 -9999 -9999 -9999 -9999 -9999 -9999 -9999 -9999 -9999 -9999 -9999 -9999 -9999 -9999 -9999 -9999 -9999 -9999 -9999 -9999 -9999 -9999 -9999 -9999 -9999 -9999 -9999 -9999 -9999 -9999 -9999 -9999 -9999 -9999 -9999 -9999 -9999 -9999 -9999 -9999
