ncols 330
nrows 65
xllcorner -12
yllcorner 40.000012
cellsize 0.166667
NODATA_value -9999
-9999 -9999 -9999 -9999 -9999 -9999 -9999 -9999 -9999 -9999 -9999 -9999 -9999 -9999 -9999 -9999 -9999 -9999 -9999 -9999 -9999 -9999 -9999 -9999 -9999 -9999 -9999 -9999 -9999 -9999 -9999 -9999 -9999 -9999 -9999 -9999 -9999 -9999 -9999 -9999 -9999 -9999 -9999 -9999 81 23 32 107 110 55 49 40 66 68 67 63 46 47 42 24 19 21 19 -9999 26 -9999 -9999 -9999 -9999 -9999 -9999 -9999 -9999 43 -9999 -9999 -9999 -9999 -9999 -9999 -9999 -9999 28 47 50 34 17 15 23 13 9 11 12 32 27 15 15 28 19 26 24 24 33 28 26 31 55 51 49 91 99 44 23 40 44 65 62 60 59 96 94 86 87 67 52 64 40 45 44 56 55 59 114 91 121 118 145 87 46 80 85 63 73 37 51 33 35 52 61 85 81 55 66 85 137 171 113 129 95 109 65 113 127 149 173 227 315 127 56 114 145 110 47 48 44 18 7 10 12 10 14 19 22 14 14 17 15 30 42 21 13 11 11 22 25 20 17 41 52 37 22 22 26 12 25 23 29 25 36 32 21 24 18 21 12 11 17 17 15 13 14 16 15 15 16 16 15 19 21 15 11 12 12 11 12 11 10 10 8 8 6 12 10 8 9 9 9 11 12 15 10 8 16 20 -9999 7 9 10 4 7 5 3 2 2 3 17 10 16 9 16 12 12 24 21 18 18 16 16 25 32 19 27 24 21 18 18 22 18 18 24 20 34 35 31 35 31 28 36 45 40 31 31 37 28 36 36 38 32 28 37 42 30 40 28 42 29 25 32 29 28 19 21 37 30 15 12 13 9 18 17
-9999 -9999 -9999 -9999 -9999 -9999 -9999 -9999 -9999 -9999 -9999 -9999 -9999 -9999 -9999 -9999 -9999 -9999 -9999 -9999 -9999 -9999 -9999 -9999 -9999 -9999 -9999 -9999 -9999 -9999 -9999 -9999 -9999 -9999 -9999 -9999 -9999 -9999 -9999 -9999 -9999 -9999 30 77 33 63 57 125 81 103 66 -9999 -9999 -9999 -9999 -9999 -9999 -9999 -9999 -9999 -9999 -9999 -9999 -9999 -9999 -9999 -9999 -9999 -9999 -9999 -9999 -9999 -9999 -9999 -9999 -9999 -9999 -9999 -9999 -9999 -9999 38 43 32 33 46 39 13 4 6 9 12 16 13 14 17 17 23 14 21 13 22 27 41 51 71 49 66 119 55 98 96 105 97 72 88 66 46 61 58 108 110 67 63 40 53 73 96 59 60 52 101 113 85 76 80 137 80 115 112 120 81 37 51 48 47 75 104 102 66 98 86 149 236 107 133 139 126 65 37 30 55 68 87 63 95 202 123 85 78 112 126 58 32 34 28 16 17 16 16 18 19 15 12 10 14 17 23 29 37 29 14 19 20 23 27 27 34 25 29 32 20 6 12 11 13 16 12 22 28 33 31 30 23 13 18 17 12 17 15 15 15 15 15 15 20 17 24 19 19 20 15 18 9 8 9 6 7 10 7 7 5 8 8 7 8 9 10 15 13 8 19 13 20 28 7 22 9 4 9 6 5 2 2 2 5 14 25 24 20 16 25 22 10 17 12 21 15 22 25 27 26 21 26 28 25 29 23 25 20 25 36 31 34 33 30 27 18 46 28 34 38 36 37 37 34 28 36 34 36 31 46 30 46 33 24 28 38 37 30 32 27 36 46 20 17 17 17 14 14
-9999 -9999 -9999 -9999 -9999 -9999 -9999 -9999 -9999 -9999 -9999 -9999 -9999 -9999 -9999 -9999 -9999 -9999 -9999 -9999 -9999 -9999 -9999 -9999 -9999 -9999 -9999 -9999 -9999 -9999 -9999 -9999 -9999 -9999 -9999 -9999 -9999 -9999 -9999 -9999 -9999 38 45 57 48 55 47 78 142 51 49 -9999 -9999 -9999 -9999 -9999 -9999 -9999 -9999 -9999 -9999 -9999 -9999 -9999 -9999 -9999 -9999 -9999 -9999 -9999 -9999 -9999 -9999 -9999 -9999 -9999 -9999 -9999 -9999 -9999 -9999 6 23 33 34 27 25 40 37 14 13 9 10 18 39 40 35 31 34 44 52 58 56 34 36 73 93 89 70 41 56 37 52 89 76 95 81 91 74 53 49 63 60 71 38 31 67 93 58 76 100 114 157 61 45 65 63 101 162 112 60 54 54 38 66 68 79 102 98 138 178 186 82 34 67 95 52 39 45 50 24 35 37 49 64 78 83 100 70 119 151 99 92 171 64 40 43 30 21 13 39 43 22 25 20 15 25 26 21 37 41 34 33 35 36 34 33 36 17 15 9 13 21 11 11 10 16 15 17 12 27 27 22 23 10 20 20 13 15 15 19 21 21 20 31 34 22 42 29 38 23 19 12 7 10 7 7 7 9 10 8 7 6 9 8 8 11 14 10 10 12 11 17 21 19 28 14 8 3 5 8 8 6 4 4 5 9 23 16 13 18 28 22 15 23 19 27 27 25 26 29 34 32 23 16 21 23 19 24 25 21 26 32 30 30 31 31 25 38 40 25 36 33 24 32 36 32 38 30 37 35 33 30 23 27 30 41 40 33 37 30 34 42 40 31 19 20 18 15 9
-9999 -9999 -9999 -9999 -9999 -9999 -9999 -9999 -9999 -9999 -9999 -9999 -9999 -9999 -9999 -9999 -9999 -9999 -9999 -9999 -9999 -9999 -9999 -9999 -9999 -9999 -9999 -9999 -9999 -9999 -9999 -9999 -9999 -9999 -9999 -9999 -9999 -9999 -9999 -9999 66 37 34 -9999 -9999 -9999 -9999 -9999 -9999 -9999 -9999 -9999 -9999 -9999 -9999 -9999 -9999 -9999 -9999 -9999 -9999 -9999 -9999 -9999 -9999 -9999 -9999 -9999 -9999 -9999 -9999 -9999 -9999 -9999 -9999 -9999 -9999 -9999 -9999 -9999 -9999 -9999 22 21 31 31 20 24 19 18 15 13 21 24 21 18 31 34 33 25 40 49 44 41 74 95 76 53 41 45 64 66 56 49 48 75 69 118 74 84 79 77 110 113 40 26 52 82 103 78 68 114 61 40 59 34 37 39 38 55 79 66 36 37 46 60 86 102 115 87 124 129 43 72 86 58 45 41 46 25 32 22 29 18 19 17 24 14 45 118 146 164 222 185 226 198 177 95 32 26 30 19 17 14 20 17 19 19 31 38 28 40 31 31 26 22 11 7 13 15 14 18 14 20 15 22 25 15 19 14 13 31 28 32 9 6 7 9 8 11 11 11 10 10 19 19 17 43 31 36 28 24 18 13 10 10 11 8 11 9 10 10 10 12 13 13 14 13 8 12 11 18 24 18 22 28 18 9 9 6 5 12 8 3 4 5 6 19 25 23 20 19 22 19 23 25 17 19 26 23 35 14 19 22 18 18 21 29 28 24 29 24 28 22 29 28 21 29 21 38 42 38 34 26 27 32 37 37 36 31 30 33 23 17 30 34 28 29 29 32 28 25 31 40 30 19 17 12 18 14
-9999 -9999 -9999 -9999 -9999 -9999 -9999 -9999 -9999 -9999 -9999 -9999 -9999 -9999 -9999 -9999 -9999 -9999 -9999 -9999 -9999 -9999 -9999 -9999 -9999 -9999 -9999 -9999 -9999 -9999 -9999 -9999 -9999 -9999 -9999 -9999 -9999 -9999 70 -9999 51 -9999 -9999 -9999 -9999 -9999 -9999 -9999 -9999 -9999 -9999 -9999 -9999 -9999 -9999 -9999 -9999 -9999 -9999 -9999 -9999 -9999 -9999 -9999 -9999 -9999 -9999 -9999 -9999 -9999 -9999 -9999 -9999 -9999 -9999 -9999 -9999 -9999 -9999 -9999 44 36 36 33 36 27 24 25 17 15 22 25 19 16 24 24 24 30 43 68 81 81 91 85 70 44 50 32 60 46 64 75 70 65 104 105 64 49 111 84 147 130 81 19 23 12 75 89 74 105 70 49 44 65 53 67 49 44 93 76 64 76 106 91 35 49 37 141 83 53 53 58 76 61 49 59 36 30 46 27 62 47 37 21 21 19 9 27 25 60 55 90 126 166 236 185 102 93 41 25 19 27 23 18 18 20 11 15 42 47 53 40 33 22 17 13 12 15 14 16 50 47 30 21 38 27 20 21 10 14 14 15 27 31 47 44 16 13 9 8 15 10 15 31 40 29 45 29 23 23 19 18 16 17 12 10 12 11 9 13 13 14 10 9 9 9 9 12 9 12 14 16 10 10 26 30 39 43 10 11 7 7 13 10 4 4 5 5 18 24 27 20 8 22 19 20 21 22 21 19 15 16 27 28 25 22 21 28 31 33 31 22 32 21 24 22 25 27 30 37 25 33 29 24 28 35 29 29 34 35 40 33 46 38 45 33 33 31 32 21 35 30 26 34 37 38 41 24 21 11
-9999 -9999 -9999 -9999 -9999 -9999 -9999 -9999 -9999 -9999 -9999 -9999 -9999 -9999 -9999 -9999 -9999 -9999 -9999 -9999 -9999 -9999 -9999 -9999 -9999 -9999 -9999 -9999 -9999 -9999 -9999 -9999 -9999 -9999 -9999 -9999 -9999 -9999 -9999 -9999 -9999 -9999 -9999 -9999 -9999 -9999 -9999 -9999 -9999 -9999 -9999 -9999 -9999 -9999 -9999 -9999 -9999 -9999 -9999 -9999 -9999 -9999 -9999 -9999 -9999 -9999 -9999 -9999 -9999 -9999 -9999 -9999 -9999 -9999 -9999 -9999 -9999 -9999 44 47 43 53 35 37 33 29 29 25 21 22 20 19 21 23 25 30 31 40 42 64 107 63 31 36 36 29 42 55 86 81 60 45 64 82 145 84 45 79 116 71 55 40 12 19 27 45 54 89 63 89 50 49 25 22 73 62 42 37 84 28 49 63 119 88 88 32 75 66 91 69 69 59 48 53 71 65 71 87 61 57 57 47 74 77 48 86 99 57 73 52 65 68 95 75 162 115 55 65 73 74 53 28 24 20 8 20 38 34 53 60 53 52 45 36 53 50 41 65 55 55 61 54 51 68 55 41 65 56 32 8 14 15 17 31 32 30 26 13 12 8 9 54 59 31 27 35 26 24 16 17 15 9 17 20 24 20 13 13 12 13 13 13 15 14 14 11 9 10 13 13 10 15 5 9 10 11 10 19 37 41 44 23 11 14 4 3 6 7 8 26 18 7 24 12 11 18 17 9 14 36 12 19 18 15 16 21 21 25 30 26 27 25 39 35 25 25 24 32 33 30 19 29 21 29 35 35 31 34 38 31 29 31 40 34 37 36 45 35 33 33 35 30 29 31 38 45 19 18 20 29
-9999 -9999 -9999 -9999 -9999 -9999 -9999 -9999 -9999 -9999 -9999 -9999 -9999 -9999 -9999 -9999 -9999 -9999 -9999 -9999 -9999 -9999 -9999 -9999 -9999 -9999 -9999 -9999 -9999 -9999 -9999 -9999 -9999 -9999 -9999 -9999 -9999 -9999 -9999 -9999 -9999 -9999 -9999 -9999 -9999 -9999 -9999 -9999 -9999 -9999 -9999 -9999 -9999 -9999 -9999 -9999 -9999 -9999 -9999 -9999 -9999 -9999 -9999 -9999 -9999 -9999 -9999 -9999 -9999 -9999 -9999 -9999 -9999 -9999 52 29 24 31 23 53 49 36 30 17 37 29 31 18 7 11 12 14 21 23 28 29 32 31 38 45 53 89 80 58 42 51 56 51 55 42 60 84 126 123 107 97 79 71 66 77 56 43 7 61 93 75 98 108 77 62 36 54 38 52 61 37 29 30 76 67 44 48 41 53 69 54 70 60 40 41 41 42 41 65 79 126 61 49 48 50 59 42 53 51 52 70 56 75 90 71 70 77 76 80 33 134 63 55 65 83 50 31 32 40 114 179 180 124 115 120 110 109 126 152 102 114 75 59 41 35 45 38 62 54 49 73 71 78 66 31 26 33 22 17 16 23 27 41 62 68 65 51 29 21 23 20 15 24 20 13 18 14 17 15 16 19 17 16 11 10 11 10 10 16 16 12 11 14 15 9 15 12 18 17 11 10 8 16 19 29 46 30 11 13 10 3 2 5 9 7 18 22 13 11 20 19 21 21 16 33 13 12 24 22 16 21 26 29 34 35 35 27 15 20 25 23 24 36 26 21 28 28 31 23 26 38 40 31 30 24 31 42 36 31 30 29 30 40 44 35 31 40 34 33 37 37 45 21 23 9
-9999 -9999 -9999 -9999 -9999 -9999 -9999 -9999 -9999 -9999 -9999 -9999 -9999 -9999 -9999 -9999 -9999 -9999 -9999 -9999 -9999 -9999 -9999 -9999 -9999 -9999 -9999 -9999 -9999 -9999 -9999 -9999 -9999 -9999 -9999 -9999 -9999 -9999 -9999 -9999 -9999 -9999 -9999 -9999 -9999 -9999 -9999 -9999 -9999 -9999 -9999 -9999 -9999 -9999 -9999 -9999 -9999 -9999 -9999 -9999 -9999 36 49 30 -9999 -9999 -9999 -9999 -9999 -9999 -9999 -9999 -9999 26 17 27 42 28 29 15 34 35 34 29 19 27 18 14 24 35 38 26 47 24 36 18 25 36 44 50 41 47 47 51 49 53 45 32 31 53 74 102 99 96 78 59 89 74 56 77 51 33 4 29 104 67 85 88 42 53 51 31 32 48 28 42 35 23 48 62 74 41 42 39 51 55 61 91 62 40 35 40 61 63 71 67 48 68 90 70 54 75 52 64 61 43 49 52 69 62 71 64 107 79 50 17 115 155 106 54 118 138 204 175 149 126 182 266 166 205 119 109 212 150 127 83 114 119 95 117 138 95 89 86 47 78 72 75 97 55 21 15 13 13 13 21 37 38 38 47 33 44 24 14 15 21 20 20 19 14 15 11 15 24 29 26 20 18 19 19 17 14 14 13 10 15 17 15 16 13 12 13 11 17 26 31 21 25 20 25 35 8 11 7 12 16 6 7 5 4 4 11 18 21 23 22 21 23 17 32 13 18 13 19 21 20 20 24 21 28 24 15 13 22 21 22 25 34 33 24 37 36 30 25 33 29 33 33 29 31 30 29 23 32 31 26 32 35 39 39 44 53 50 49 56 52 53 51 39 10
-9999 -9999 -9999 -9999 -9999 -9999 -9999 -9999 -9999 -9999 -9999 -9999 -9999 -9999 -9999 -9999 -9999 -9999 -9999 -9999 -9999 -9999 -9999 -9999 -9999 -9999 -9999 -9999 -9999 -9999 -9999 -9999 -9999 -9999 -9999 -9999 -9999 -9999 -9999 -9999 -9999 -9999 -9999 -9999 -9999 -9999 -9999 -9999 -9999 -9999 -9999 -9999 -9999 -9999 -9999 -9999 -9999 -9999 -9999 -9999 -9999 37 27 14 12 -9999 -9999 -9999 -9999 -9999 -9999 -9999 -9999 56 52 54 52 51 57 31 40 31 39 44 33 32 33 29 22 31 39 41 45 49 46 28 17 19 21 28 42 38 43 55 37 42 37 43 79 33 63 54 59 50 41 58 52 67 64 62 90 19 6 6 120 97 124 57 38 41 58 66 49 44 59 40 29 35 20 35 70 44 47 47 65 60 62 86 122 51 66 61 68 50 42 34 33 43 42 48 57 47 54 56 48 49 43 47 39 57 119 69 71 86 59 15 24 53 131 93 120 149 98 104 116 157 149 95 106 71 64 100 109 127 133 144 156 131 103 115 99 104 80 85 83 85 71 65 86 95 113 74 27 19 20 9 37 24 24 53 54 55 32 15 10 18 20 16 24 20 14 18 19 23 27 29 23 23 25 17 20 27 18 16 13 10 19 22 21 23 25 23 20 20 20 22 23 28 25 28 36 33 33 17 12 -9999 -9999 18 -9999 6 4 8 9 15 20 11 14 18 27 15 12 11 21 18 21 24 24 18 18 22 26 30 33 28 27 24 22 33 26 24 44 32 28 26 38 39 27 23 29 35 28 32 32 33 30 30 28 26 37 24 27 34 30 20 25 28 20 22 41 31
-9999 -9999 -9999 -9999 -9999 -9999 -9999 -9999 -9999 -9999 -9999 -9999 -9999 -9999 -9999 -9999 -9999 -9999 -9999 -9999 -9999 -9999 -9999 -9999 -9999 -9999 -9999 -9999 -9999 -9999 -9999 -9999 -9999 -9999 -9999 -9999 -9999 -9999 -9999 -9999 -9999 -9999 -9999 -9999 -9999 -9999 -9999 -9999 -9999 -9999 -9999 -9999 -9999 -9999 -9999 -9999 -9999 -9999 -9999 -9999 -9999 -9999 22 21 10 21 37 28 21 19 16 44 49 45 24 38 29 22 56 53 50 20 33 28 44 43 30 35 29 25 31 29 27 43 49 49 28 26 17 17 23 41 34 43 51 12 32 36 71 38 35 47 38 48 47 45 39 43 73 98 137 10 7 9 40 35 43 52 46 59 55 42 26 35 30 25 26 32 23 23 43 32 45 41 46 41 47 72 91 130 178 211 124 87 90 51 53 55 36 30 27 56 51 41 62 33 65 51 39 38 68 75 100 82 60 64 77 62 87 83 96 140 185 126 100 211 228 219 137 221 335 340 411 381 117 164 170 134 173 154 92 81 86 107 92 111 142 131 79 91 86 100 152 105 20 27 20 33 38 28 33 41 46 14 16 18 31 14 30 32 20 24 15 26 21 23 28 22 23 21 18 17 22 22 13 10 18 19 21 21 17 15 12 18 16 18 28 32 21 23 32 30 34 25 45 23 15 -9999 -9999 -9999 -9999 6 6 14 8 18 17 19 6 9 13 19 26 26 21 13 14 15 19 13 23 28 18 32 24 32 28 28 23 33 30 33 25 32 22 30 24 28 37 32 26 33 25 33 33 31 28 23 29 31 23 21 30 31 23 29 19 30 23 21
-9999 -9999 -9999 -9999 -9999 -9999 -9999 -9999 -9999 -9999 -9999 -9999 -9999 -9999 -9999 -9999 -9999 -9999 -9999 -9999 -9999 -9999 -9999 -9999 -9999 -9999 -9999 -9999 -9999 -9999 -9999 -9999 -9999 -9999 -9999 -9999 -9999 -9999 -9999 -9999 -9999 -9999 -9999 -9999 -9999 -9999 -9999 -9999 -9999 -9999 -9999 -9999 -9999 -9999 -9999 -9999 -9999 -9999 -9999 -9999 -9999 -9999 23 35 35 33 31 46 38 43 37 21 52 39 23 16 25 7 30 40 46 50 42 32 32 47 35 21 17 21 39 32 51 60 62 73 77 33 12 16 16 32 30 27 52 65 20 39 64 34 30 46 26 35 35 37 37 51 61 81 26 13 8 47 39 60 53 50 97 59 60 42 36 26 25 29 57 38 71 60 59 48 32 48 39 70 74 88 129 113 215 182 146 152 130 124 78 31 43 40 17 29 56 47 39 49 56 39 38 48 65 43 33 54 59 87 64 53 76 84 129 131 99 104 249 217 201 223 190 164 246 221 380 228 58 170 155 171 135 122 104 84 74 77 92 151 193 195 166 79 88 127 187 136 98 48 44 31 31 43 39 47 54 25 22 8 40 22 18 34 24 33 17 16 31 23 21 23 24 24 22 25 20 23 16 16 24 25 24 17 21 21 18 19 22 21 22 26 26 18 21 21 26 24 25 32 44 33 26 37 31 -9999 9 9 15 13 12 8 5 13 11 13 18 18 23 19 15 18 19 15 19 24 28 31 31 45 51 33 32 32 22 27 36 28 22 35 24 32 23 39 33 30 26 29 34 36 26 26 26 28 25 19 25 28 25 30 29 25 24 23
-9999 -9999 -9999 -9999 -9999 -9999 -9999 -9999 -9999 -9999 -9999 -9999 -9999 -9999 -9999 -9999 -9999 -9999 -9999 -9999 -9999 -9999 -9999 -9999 -9999 -9999 -9999 -9999 -9999 -9999 -9999 -9999 -9999 -9999 -9999 -9999 -9999 -9999 -9999 -9999 -9999 -9999 -9999 -9999 -9999 -9999 -9999 -9999 -9999 -9999 -9999 -9999 -9999 -9999 -9999 -9999 -9999 -9999 -9999 -9999 -9999 -9999 -9999 30 29 48 34 40 58 60 34 38 54 41 27 22 16 17 17 10 32 22 41 50 52 29 21 22 30 39 37 48 37 31 25 39 25 19 21 25 27 17 27 30 38 57 33 39 51 35 33 31 23 15 38 42 58 78 66 38 20 29 120 88 67 73 43 36 52 84 54 39 56 57 37 21 54 52 52 48 43 42 59 52 30 22 22 38 100 200 139 91 215 162 108 100 139 125 58 33 22 23 30 57 41 31 33 37 43 38 23 41 53 35 25 34 87 137 137 147 110 153 133 196 143 200 201 201 269 358 248 261 248 196 184 158 169 147 123 81 168 158 57 106 208 173 119 166 166 146 80 87 127 154 173 124 77 62 61 50 22 36 51 59 56 13 38 26 17 22 31 31 18 19 42 29 23 23 33 26 27 20 20 21 21 24 27 21 28 17 16 16 17 14 19 24 20 30 23 23 21 21 21 23 23 31 23 32 28 29 31 27 28 35 36 24 20 3 11 14 3 6 9 13 22 23 28 24 18 17 20 16 21 28 33 44 37 49 32 37 30 43 48 24 24 38 39 33 29 24 44 33 29 27 28 41 30 32 33 26 23 24 31 21 25 21 24 22 21 23
-9999 -9999 -9999 -9999 -9999 -9999 -9999 -9999 -9999 -9999 -9999 -9999 -9999 -9999 -9999 -9999 -9999 -9999 -9999 -9999 -9999 -9999 -9999 -9999 -9999 -9999 -9999 -9999 -9999 -9999 -9999 -9999 -9999 -9999 -9999 -9999 -9999 -9999 -9999 -9999 -9999 -9999 -9999 -9999 -9999 -9999 -9999 -9999 -9999 -9999 -9999 30 23 29 -9999 -9999 -9999 -9999 -9999 -9999 -9999 -9999 -9999 41 53 82 52 41 41 33 31 25 37 35 25 23 14 12 13 18 21 17 31 34 27 43 24 19 10 16 21 19 17 16 43 22 16 23 30 25 13 28 38 48 33 48 44 30 50 58 30 29 20 21 33 64 49 28 20 7 27 210 227 91 77 38 64 66 74 66 64 121 71 36 47 45 48 55 48 28 13 17 37 34 30 31 36 31 21 24 62 131 65 119 145 167 82 97 86 80 136 65 37 34 44 66 44 79 32 16 11 52 34 12 22 59 95 79 82 146 164 75 164 139 159 185 212 126 219 145 163 213 235 278 179 224 177 214 172 107 81 198 27 41 42 159 208 176 280 195 164 141 110 117 166 229 149 110 72 46 29 28 25 34 33 52 40 33 34 32 23 34 30 30 43 36 36 28 30 27 28 25 20 21 23 26 27 25 25 16 9 16 16 21 20 13 23 28 23 26 22 24 22 20 24 27 17 28 24 25 23 20 18 28 26 33 42 -9999 3 12 16 13 14 27 32 35 26 28 24 27 20 28 33 27 23 25 34 39 32 33 36 36 38 50 40 32 34 40 32 27 32 24 29 27 30 26 39 30 32 26 31 25 23 20 34 16 17 26 21 29
-9999 -9999 -9999 -9999 -9999 -9999 -9999 -9999 -9999 -9999 -9999 -9999 -9999 -9999 -9999 -9999 -9999 -9999 -9999 -9999 -9999 -9999 -9999 -9999 -9999 -9999 -9999 -9999 -9999 -9999 -9999 -9999 -9999 -9999 -9999 -9999 -9999 -9999 -9999 -9999 -9999 -9999 -9999 -9999 26 25 33 25 36 35 54 37 51 35 31 -9999 41 33 26 30 17 20 27 28 44 38 60 43 43 49 33 59 65 24 34 35 24 24 28 32 24 18 13 20 32 34 20 13 10 11 11 23 29 53 22 10 19 26 24 15 -9999 23 39 37 37 36 56 50 55 43 29 19 24 45 127 162 90 23 8 9 154 138 114 72 49 54 57 60 148 168 115 45 46 36 20 26 30 27 39 32 41 36 22 22 35 46 49 42 30 39 36 42 46 77 109 82 124 92 50 106 73 84 59 71 63 91 58 34 35 46 47 31 32 15 22 33 89 83 36 113 78 73 117 230 180 136 135 115 242 158 184 173 136 115 150 118 240 145 41 33 152 80 20 3 3 22 135 192 184 195 223 281 154 215 134 180 223 192 177 119 65 43 31 28 28 23 32 36 58 45 46 36 54 58 51 55 60 43 30 21 30 28 25 24 23 27 25 25 27 23 20 17 14 20 19 20 25 19 15 15 18 20 15 19 20 21 18 26 25 21 24 25 16 18 23 28 26 31 41 24 4 16 19 7 19 21 21 21 30 25 26 26 21 20 18 26 38 39 41 41 36 33 43 39 41 43 41 41 46 46 50 33 28 41 31 31 25 41 30 26 25 26 24 23 22 30 24 26 30 34
-9999 -9999 -9999 -9999 -9999 -9999 -9999 -9999 -9999 -9999 -9999 -9999 -9999 -9999 -9999 -9999 -9999 -9999 -9999 -9999 -9999 -9999 -9999 -9999 -9999 -9999 -9999 -9999 -9999 -9999 -9999 -9999 -9999 -9999 -9999 -9999 -9999 -9999 -9999 -9999 -9999 -9999 -9999 34 30 38 42 50 59 44 42 46 23 39 41 51 47 23 23 30 19 19 27 28 21 29 18 19 32 46 47 59 22 46 29 27 34 35 24 17 15 6 5 4 19 26 29 25 24 28 34 31 37 25 27 27 27 23 14 15 26 47 51 45 24 38 48 47 43 34 34 28 53 91 123 195 192 7 5 102 162 154 93 70 44 61 155 129 61 39 66 59 34 26 30 30 29 21 26 22 19 22 24 16 25 16 18 19 22 30 54 47 39 89 95 101 135 134 140 115 109 80 79 92 143 107 58 46 48 48 54 34 31 9 57 131 88 22 35 39 72 127 123 162 134 125 113 113 109 127 61 64 85 53 61 59 61 35 44 146 125 85 69 9 3 3 4 9 54 193 224 166 180 206 248 242 176 205 173 168 183 120 62 34 23 41 38 71 73 59 37 34 31 26 19 22 32 56 57 45 37 27 33 30 30 25 29 29 29 26 26 20 15 21 17 24 24 25 23 18 19 17 18 14 21 23 26 21 18 18 23 23 18 20 19 20 18 17 22 23 33 40 37 26 22 17 23 19 24 26 22 23 26 25 18 27 31 23 31 37 41 29 46 41 45 53 48 43 35 42 41 43 42 44 29 29 23 41 30 33 22 30 27 22 23 12 15 17 27 23
-9999 -9999 -9999 -9999 -9999 -9999 -9999 -9999 -9999 -9999 -9999 -9999 -9999 -9999 -9999 -9999 -9999 -9999 -9999 -9999 -9999 -9999 -9999 -9999 -9999 -9999 -9999 -9999 -9999 -9999 -9999 -9999 -9999 -9999 -9999 -9999 -9999 -9999 -9999 -9999 -9999 -9999 -9999 -9999 -9999 29 58 59 47 30 44 34 32 39 49 36 48 36 23 20 27 19 19 18 19 26 28 32 15 52 45 46 23 24 25 27 37 35 26 12 10 8 7 5 7 6 14 13 26 22 32 45 41 39 37 47 15 18 27 48 49 33 51 41 44 49 44 36 38 33 28 59 72 96 183 182 82 5 26 129 154 184 97 58 90 150 71 38 64 72 38 27 27 29 32 42 31 19 21 19 13 15 19 24 45 51 30 32 38 49 52 50 48 55 29 43 41 45 57 76 133 139 201 157 138 91 42 62 96 85 33 5 6 31 127 111 24 10 16 32 29 30 31 74 82 104 72 115 75 49 66 86 49 54 76 70 38 41 38 124 116 19 2 2 6 4 6 7 28 32 43 183 92 207 210 249 220 259 222 169 182 176 146 125 56 60 76 56 42 38 44 46 43 39 31 24 25 23 27 38 54 51 45 38 38 28 32 35 37 28 26 30 29 24 26 23 23 27 27 27 27 26 22 18 23 16 25 26 12 17 20 23 21 20 24 24 24 18 15 21 23 22 28 28 23 21 20 24 22 19 16 18 14 25 21 18 24 20 27 35 45 43 34 45 51 42 39 40 37 42 47 42 47 55 47 44 36 36 35 28 19 22 18 20 29 11 6 7 13 21
-9999 -9999 -9999 -9999 -9999 -9999 -9999 -9999 -9999 -9999 -9999 -9999 -9999 -9999 -9999 -9999 -9999 -9999 -9999 -9999 -9999 -9999 -9999 -9999 -9999 -9999 -9999 -9999 -9999 -9999 -9999 -9999 -9999 -9999 -9999 -9999 -9999 -9999 -9999 -9999 -9999 -9999 -9999 -9999 -9999 35 50 37 37 32 32 43 40 45 25 23 29 27 47 35 28 12 15 20 16 26 22 21 17 19 43 23 26 18 25 27 30 29 17 18 8 5 4 5 10 15 14 7 14 14 14 42 39 51 59 54 23 45 44 41 46 42 32 38 32 33 45 55 51 41 70 108 140 155 224 185 7 42 52 150 224 84 71 55 109 90 80 57 34 27 33 42 31 35 36 29 25 31 30 38 41 32 28 29 43 32 41 32 49 29 43 65 65 74 48 34 40 34 63 77 69 105 103 130 127 134 123 111 81 106 14 20 28 37 30 3 2 2 2 2 7 21 29 8 32 72 95 35 40 55 63 86 71 57 183 153 86 17 29 5 39 4 4 6 10 10 2 3 2 3 55 140 91 63 97 159 193 219 250 261 210 147 171 181 139 51 42 50 59 70 39 32 33 40 38 30 30 25 28 28 43 53 58 58 54 30 39 36 36 40 39 40 42 33 21 23 26 29 19 22 21 30 24 22 21 25 27 19 16 24 22 22 22 29 14 16 22 22 17 19 18 12 -9999 24 27 17 18 25 23 27 18 21 25 22 24 28 31 17 24 30 35 41 36 39 50 66 60 53 48 40 34 49 32 42 41 46 53 39 30 25 20 28 24 28 9 10 11 5 7 -9999
-9999 -9999 -9999 -9999 -9999 -9999 -9999 -9999 -9999 -9999 -9999 -9999 -9999 -9999 -9999 -9999 -9999 -9999 -9999 -9999 -9999 -9999 -9999 -9999 -9999 -9999 -9999 -9999 -9999 -9999 -9999 -9999 -9999 -9999 -9999 -9999 -9999 -9999 -9999 -9999 -9999 -9999 -9999 -9999 -9999 -9999 35 25 46 34 33 32 36 32 24 20 33 24 34 34 27 29 21 18 18 13 16 17 14 16 19 18 20 23 24 18 25 27 35 18 11 6 11 14 12 11 11 17 13 20 18 37 33 29 40 44 44 30 43 41 44 42 38 39 36 47 52 35 32 62 94 109 137 186 229 129 9 13 155 306 182 91 64 68 98 100 51 40 43 53 45 35 44 60 71 57 59 40 68 46 39 42 40 54 23 45 25 35 77 39 74 104 120 142 155 203 214 174 190 162 172 171 215 214 201 174 140 139 137 54 53 84 65 23 12 3 3 2 1 1 2 20 35 25 67 161 83 56 54 90 150 176 165 62 94 109 37 3 3 2 4 5 6 10 7 9 3 2 2 3 17 88 162 237 302 109 200 319 281 207 173 188 170 129 143 145 70 28 46 46 59 33 38 45 45 46 28 23 29 29 30 55 61 60 68 55 51 45 36 36 34 35 33 36 32 30 29 13 26 18 15 25 18 24 21 17 18 16 14 17 18 23 21 8 13 13 22 16 20 15 25 18 26 16 26 20 18 16 19 18 18 19 21 19 24 19 18 18 30 30 29 35 44 54 43 43 43 34 31 31 23 30 33 34 41 38 43 40 39 23 23 27 26 28 18 7 8 6 6 -9999
-9999 -9999 -9999 -9999 -9999 -9999 -9999 -9999 -9999 -9999 -9999 -9999 -9999 -9999 -9999 -9999 -9999 -9999 -9999 -9999 -9999 -9999 -9999 -9999 -9999 -9999 -9999 -9999 -9999 -9999 -9999 -9999 -9999 -9999 -9999 -9999 -9999 -9999 -9999 -9999 -9999 -9999 -9999 -9999 -9999 -9999 -9999 -9999 -9999 -9999 -9999 18 22 29 37 34 28 27 26 23 28 23 21 18 14 20 17 17 14 20 12 22 21 28 38 29 32 26 15 7 12 14 10 8 13 16 16 13 15 16 20 30 48 51 46 38 41 38 31 42 45 38 39 62 46 36 45 35 37 40 39 96 203 202 151 29 31 78 186 182 122 143 129 124 69 73 78 77 104 62 53 33 99 107 61 43 49 60 85 40 162 173 162 238 293 277 269 273 255 362 205 229 282 332 403 418 451 322 247 232 265 283 244 204 177 258 361 240 137 123 98 51 3 3 3 2 2 2 8 8 9 19 102 80 86 155 119 56 41 28 56 65 45 23 24 11 4 2 1 1 6 13 10 9 5 7 7 2 3 7 14 51 186 207 173 240 206 119 175 208 210 164 137 125 127 109 171 46 49 62 53 58 35 41 42 43 41 30 27 31 50 39 56 61 44 63 43 40 44 32 39 42 40 34 27 29 22 29 27 35 24 17 22 19 18 12 19 8 7 10 11 27 9 6 15 18 21 22 16 24 24 9 30 31 30 32 30 16 9 17 17 17 20 17 17 17 21 25 29 32 28 20 28 37 42 37 24 27 34 31 42 40 38 38 35 38 35 29 33 29 22 24 24 36 29 -9999 -9999 -9999 28 23
-9999 -9999 -9999 -9999 -9999 -9999 -9999 -9999 -9999 -9999 -9999 -9999 -9999 -9999 -9999 -9999 -9999 -9999 -9999 -9999 -9999 -9999 -9999 -9999 -9999 -9999 -9999 -9999 -9999 -9999 -9999 -9999 -9999 -9999 -9999 -9999 -9999 -9999 -9999 -9999 -9999 -9999 -9999 -9999 -9999 -9999 -9999 -9999 -9999 -9999 -9999 -9999 -9999 10 -9999 -9999 29 27 24 21 15 15 15 14 14 19 13 19 16 12 16 21 13 22 23 15 18 17 12 21 13 12 12 12 10 9 14 27 32 25 28 27 46 43 44 39 43 48 55 45 38 49 59 51 31 31 23 20 67 42 31 59 41 23 41 54 65 53 74 181 153 100 80 73 48 79 77 58 -9999 -9999 163 112 193 186 200 269 279 276 316 324 264 287 237 230 301 365 262 304 365 454 542 535 294 451 424 319 453 441 337 342 348 297 360 317 243 195 214 296 155 94 93 68 45 18 5 3 4 38 45 16 21 25 94 45 47 92 41 44 37 23 6 6 3 7 4 2 2 1 1 1 12 15 9 10 9 9 13 5 8 38 89 49 33 52 182 228 201 250 189 386 337 221 156 136 149 140 141 108 62 39 54 42 116 63 41 41 37 43 28 33 35 52 63 54 56 51 37 38 41 32 36 39 34 42 39 31 33 22 28 39 34 19 26 9 20 22 25 4 6 17 9 26 13 4 5 28 14 -9999 19 -9999 35 43 -9999 -9999 23 19 27 24 25 18 18 15 15 21 17 14 20 28 34 37 28 24 23 25 42 30 22 27 29 24 29 29 28 27 31 36 31 26 37 23 7 18 22 8 16 12 19 28 18 15
-9999 -9999 -9999 -9999 -9999 -9999 -9999 -9999 -9999 -9999 -9999 -9999 -9999 -9999 -9999 -9999 -9999 -9999 -9999 -9999 -9999 -9999 -9999 -9999 -9999 -9999 -9999 -9999 -9999 -9999 -9999 -9999 -9999 -9999 -9999 -9999 -9999 -9999 -9999 -9999 -9999 -9999 -9999 -9999 -9999 -9999 -9999 -9999 -9999 -9999 -9999 -9999 -9999 -9999 -9999 -9999 -9999 13 11 14 25 20 14 20 17 24 26 22 22 19 17 21 21 11 15 25 25 24 23 17 10 9 9 10 9 17 29 47 36 29 41 35 38 43 51 64 84 48 49 69 53 70 65 23 19 20 37 51 50 61 68 112 120 112 123 127 115 190 176 125 96 72 94 73 79 122 107 141 195 194 340 281 247 283 327 342 370 415 455 304 377 341 426 420 377 319 359 319 399 462 456 336 233 451 443 397 351 278 321 372 361 341 225 259 255 182 136 214 151 111 135 46 21 9 9 10 8 21 52 55 28 77 88 29 31 73 19 23 39 21 10 6 2 1 2 1 2 1 1 1 5 5 9 7 15 25 38 53 48 43 44 50 104 95 113 116 100 201 152 271 272 215 186 177 197 212 159 128 122 48 50 71 89 91 37 35 43 55 35 62 76 63 76 71 62 54 62 40 40 35 43 34 39 39 39 40 22 32 28 32 34 36 29 14 19 30 15 4 12 21 4 18 22 3 4 30 24 23 26 27 27 -9999 37 31 17 15 17 25 34 31 33 33 23 21 22 29 43 36 31 33 24 22 24 19 25 30 25 20 22 28 31 39 35 31 32 13 6 7 15 22 26 36 31 31 26 20 26 28 22 27
-9999 -9999 -9999 -9999 -9999 -9999 -9999 -9999 -9999 -9999 -9999 -9999 -9999 -9999 -9999 -9999 -9999 -9999 -9999 -9999 -9999 -9999 -9999 -9999 -9999 -9999 -9999 -9999 -9999 -9999 -9999 -9999 -9999 -9999 -9999 -9999 -9999 -9999 -9999 -9999 -9999 -9999 -9999 -9999 -9999 -9999 -9999 -9999 -9999 -9999 -9999 -9999 -9999 -9999 -9999 -9999 -9999 -9999 -9999 15 18 30 18 22 21 18 17 19 19 14 16 21 31 32 31 17 13 10 21 25 24 18 17 20 26 30 34 66 45 24 29 34 41 38 59 74 48 55 59 61 94 92 17 13 14 41 31 40 84 94 99 108 149 150 162 187 262 242 108 78 93 115 87 121 130 219 284 245 448 306 396 342 337 337 429 432 464 569 671 497 501 655 432 540 311 444 494 464 616 383 429 359 317 296 374 319 370 381 282 364 348 264 287 243 188 214 189 144 42 38 76 33 15 17 21 9 25 72 81 66 107 60 33 44 18 18 3 8 9 24 19 4 2 1 2 1 1 2 1 1 1 1 2 9 28 57 107 78 58 43 63 67 98 88 97 112 111 99 103 93 207 152 181 216 193 205 200 155 131 112 48 52 55 85 32 33 39 46 41 54 83 73 72 65 59 43 49 32 39 34 46 36 37 41 32 37 37 33 10 9 9 24 34 22 9 25 6 4 12 21 21 19 3 2 16 -9999 15 15 6 12 9 5 5 7 5 29 18 19 24 30 26 36 40 39 34 22 30 27 29 18 22 16 21 29 -9999 29 -9999 29 33 34 37 40 5 2 4 6 5 5 9 10 13 26 15 18 12 13 10 11 7 7
-9999 -9999 -9999 -9999 -9999 -9999 -9999 -9999 -9999 -9999 -9999 -9999 -9999 -9999 -9999 -9999 -9999 -9999 -9999 -9999 -9999 -9999 -9999 -9999 -9999 -9999 -9999 -9999 -9999 -9999 -9999 -9999 -9999 -9999 -9999 -9999 -9999 -9999 -9999 -9999 -9999 -9999 -9999 -9999 -9999 -9999 -9999 -9999 -9999 -9999 -9999 -9999 -9999 -9999 -9999 -9999 -9999 -9999 -9999 -9999 12 12 10 11 18 17 15 24 25 17 16 23 21 20 28 26 15 16 22 16 18 22 22 18 13 15 13 12 15 14 48 42 50 20 40 98 97 80 40 43 98 78 17 7 25 22 28 84 98 107 106 105 124 201 339 159 69 73 108 172 125 147 238 275 230 363 565 569 506 538 470 494 393 383 483 536 506 521 377 448 381 415 496 559 405 -9999 498 462 475 460 451 436 395 342 324 272 304 230 221 328 303 239 186 142 119 48 40 39 37 34 35 19 20 27 13 15 25 80 53 49 33 29 16 13 12 24 1 3 10 4 10 6 2 2 1 1 1 1 1 2 1 2 8 30 35 53 152 143 154 133 96 53 66 57 79 71 78 59 66 79 241 219 261 267 162 190 245 185 161 155 58 60 52 32 61 75 97 100 115 56 70 85 75 73 56 46 59 51 37 42 45 44 42 42 37 18 20 34 23 17 14 15 15 25 22 17 4 4 13 22 7 3 4 14 -9999 19 3 3 5 4 2 3 3 4 27 15 13 14 19 19 34 31 31 28 21 34 27 -9999 -9999 -9999 -9999 -9999 -9999 -9999 -9999 -9999 -9999 -9999 17 13 25 30 29 26 35 31 33 15 4 2 21 25 24 17 18 18 16 14 17 7
-9999 -9999 -9999 -9999 -9999 -9999 -9999 -9999 -9999 -9999 -9999 -9999 -9999 -9999 -9999 -9999 -9999 -9999 -9999 -9999 -9999 -9999 -9999 -9999 -9999 -9999 -9999 -9999 -9999 -9999 -9999 -9999 -9999 -9999 -9999 -9999 -9999 -9999 -9999 -9999 -9999 -9999 -9999 -9999 -9999 -9999 -9999 -9999 -9999 -9999 -9999 -9999 -9999 -9999 -9999 -9999 -9999 -9999 -9999 3 10 17 13 14 12 28 35 20 32 25 21 20 15 19 26 31 30 19 13 23 18 14 13 10 12 12 8 10 21 17 22 29 32 24 22 121 144 97 74 75 88 14 11 10 14 18 126 103 76 76 127 183 321 66 73 75 117 123 128 207 306 421 608 599 456 454 599 450 549 505 459 378 451 350 471 480 379 422 448 440 414 421 506 462 407 344 414 515 634 490 515 567 568 369 226 249 276 178 215 352 322 255 250 165 27 49 41 50 39 41 31 24 29 33 40 65 54 78 90 -9999 18 17 13 17 16 21 1 2 6 5 6 6 5 2 1 1 1 1 1 1 1 2 12 35 42 104 105 174 166 107 89 91 55 77 57 61 59 47 52 57 111 212 173 231 141 146 196 224 197 183 103 43 52 27 60 72 69 65 62 86 62 64 68 57 48 46 50 51 48 23 41 43 27 33 39 34 17 26 30 13 15 17 8 20 17 4 4 6 18 9 7 7 10 24 18 5 6 6 4 7 8 9 12 16 22 9 9 23 28 27 23 18 27 24 24 -9999 -9999 -9999 -9999 -9999 -9999 -9999 -9999 -9999 -9999 13 8 11 17 23 18 19 22 18 14 9 9 21 28 25 5 25 34 24 19 18 22 20 17 19
-9999 -9999 -9999 -9999 -9999 -9999 -9999 -9999 -9999 -9999 -9999 -9999 -9999 -9999 -9999 -9999 -9999 -9999 -9999 -9999 -9999 -9999 -9999 -9999 -9999 -9999 -9999 -9999 -9999 -9999 -9999 -9999 -9999 -9999 -9999 -9999 -9999 -9999 -9999 -9999 -9999 -9999 -9999 -9999 -9999 -9999 -9999 -9999 -9999 -9999 -9999 -9999 -9999 -9999 -9999 -9999 -9999 -9999 -9999 -9999 9 13 14 8 10 16 39 24 18 24 19 21 20 18 25 32 24 22 13 10 13 12 13 30 31 19 23 28 22 20 24 19 19 15 20 33 48 78 44 57 55 11 9 9 13 103 56 86 111 124 210 168 115 121 132 268 335 323 345 444 545 485 537 587 531 581 478 481 454 479 392 327 413 434 412 518 354 538 753 554 321 523 462 379 406 384 386 388 481 480 557 456 426 337 390 311 211 224 128 326 272 488 274 110 64 57 44 48 53 47 28 27 28 37 43 71 -9999 24 59 42 38 25 28 32 23 24 1 3 5 4 6 5 3 2 1 2 2 1 2 2 2 2 6 27 39 45 132 273 247 184 171 178 119 139 104 49 42 41 43 42 59 140 184 180 138 213 156 167 205 170 147 56 69 37 58 72 72 59 62 62 83 59 53 50 49 54 45 37 44 38 17 28 34 30 35 34 23 19 21 17 16 15 5 -9999 4 2 9 11 19 21 17 14 13 10 5 5 6 7 7 5 6 10 7 10 11 8 7 11 12 14 15 -9999 -9999 -9999 -9999 -9999 -9999 -9999 -9999 -9999 -9999 -9999 -9999 15 13 12 12 14 9 8 13 13 16 15 14 12 5 4 11 20 15 3 16 19 20 20 21 23 14 19
-9999 -9999 -9999 -9999 -9999 -9999 -9999 -9999 -9999 -9999 -9999 -9999 -9999 -9999 -9999 -9999 -9999 -9999 -9999 -9999 -9999 -9999 -9999 -9999 -9999 -9999 -9999 -9999 -9999 -9999 -9999 -9999 -9999 -9999 -9999 -9999 -9999 -9999 -9999 -9999 -9999 -9999 -9999 -9999 -9999 -9999 -9999 -9999 -9999 -9999 -9999 -9999 -9999 -9999 -9999 -9999 -9999 -9999 -9999 -9999 -9999 18 12 12 26 23 23 25 49 36 22 20 9 15 16 18 10 15 16 18 29 40 46 43 36 49 38 33 44 31 37 28 17 15 35 36 33 38 48 65 63 46 12 10 117 85 118 105 150 202 227 111 94 208 354 255 344 448 612 727 -9999 499 426 417 379 471 361 368 442 459 421 372 329 281 453 708 680 652 534 544 479 474 382 349 389 365 430 354 392 426 396 393 401 322 343 350 165 160 296 252 352 190 269 241 201 191 35 29 30 15 25 39 30 49 49 21 38 20 28 36 34 33 41 31 25 14 2 6 6 5 5 4 2 2 1 2 1 2 3 3 2 3 3 27 141 198 124 303 154 152 149 226 217 90 93 46 48 44 52 48 45 144 178 181 223 201 132 151 212 180 183 79 74 46 65 78 80 89 75 71 74 50 50 42 41 39 51 50 58 51 71 36 21 25 18 28 -9999 22 -9999 -9999 -9999 -9999 -9999 -9999 -9999 -9999 13 14 5 4 4 7 8 3 4 4 3 2 2 3 2 3 8 9 6 6 -9999 -9999 -9999 -9999 -9999 -9999 -9999 -9999 -9999 -9999 -9999 -9999 -9999 5 6 3 8 10 13 15 15 18 18 21 15 14 14 18 14 10 5 4 15 22 15 16 -9999 13 16 31 15 27 38 38
-9999 -9999 -9999 -9999 -9999 -9999 -9999 -9999 -9999 -9999 -9999 -9999 -9999 -9999 -9999 -9999 -9999 -9999 -9999 -9999 -9999 -9999 -9999 -9999 -9999 -9999 -9999 -9999 -9999 -9999 -9999 -9999 -9999 -9999 -9999 -9999 -9999 -9999 -9999 -9999 -9999 -9999 -9999 -9999 -9999 -9999 -9999 -9999 -9999 -9999 -9999 -9999 -9999 -9999 -9999 -9999 -9999 -9999 -9999 -9999 -9999 -9999 15 16 9 9 15 24 24 29 40 32 11 16 7 17 21 20 25 33 47 40 41 42 46 42 49 51 45 61 42 51 24 24 39 26 24 37 51 83 80 22 11 13 95 111 172 221 302 237 -9999 -9999 -9999 481 305 404 463 463 499 548 690 467 364 533 498 607 472 523 502 484 380 449 388 399 565 418 479 504 333 542 430 411 321 464 351 405 434 345 387 369 386 382 440 369 410 366 363 374 270 361 327 287 146 315 359 224 32 33 36 34 35 9 40 25 23 16 15 11 14 18 16 37 41 32 22 2 12 15 7 6 6 4 4 2 2 2 2 2 2 3 4 4 6 31 59 183 165 254 207 155 310 343 222 179 82 59 63 60 54 52 62 79 110 153 105 225 129 154 138 215 195 148 100 117 82 76 83 72 70 55 50 54 53 37 39 39 40 39 36 37 25 41 39 31 16 17 23 -9999 -9999 -9999 -9999 -9999 -9999 -9999 2 4 8 6 7 9 5 4 5 4 3 3 3 3 6 7 3 3 7 -9999 2 -9999 -9999 -9999 -9999 -9999 -9999 -9999 -9999 -9999 -9999 -9999 -9999 -9999 -9999 6 7 3 5 5 5 6 5 13 11 10 15 16 12 10 15 13 19 19 23 27 19 19 17 11 11 10 8 -9999 7 12
-9999 -9999 -9999 -9999 -9999 -9999 -9999 -9999 -9999 -9999 -9999 -9999 -9999 -9999 -9999 -9999 -9999 -9999 -9999 -9999 -9999 -9999 -9999 -9999 -9999 -9999 -9999 -9999 -9999 -9999 -9999 -9999 -9999 -9999 -9999 -9999 -9999 -9999 -9999 -9999 -9999 -9999 -9999 -9999 -9999 -9999 -9999 -9999 -9999 -9999 -9999 -9999 -9999 -9999 -9999 -9999 -9999 -9999 -9999 -9999 -9999 -9999 -9999 -9999 -9999 10 8 13 16 19 32 21 8 9 12 11 32 24 22 34 36 37 69 48 57 49 34 73 81 76 64 39 33 30 54 31 70 50 115 117 108 21 15 24 117 166 179 344 143 94 277 304 319 566 605 722 604 720 715 692 -9999 645 448 432 553 619 630 478 578 592 703 708 652 551 542 463 524 460 385 436 390 391 371 495 448 472 419 430 356 328 232 391 310 403 524 345 249 195 186 422 277 220 176 122 102 115 80 77 158 89 54 60 25 30 25 12 10 15 33 41 44 64 108 50 28 7 18 9 5 5 7 5 3 2 2 2 3 3 3 2 3 65 150 104 135 178 163 120 216 185 133 128 162 182 68 59 64 62 60 59 71 77 109 81 118 112 188 122 145 167 224 130 74 112 87 69 58 60 69 76 45 61 64 39 34 42 51 39 35 38 21 24 28 -9999 -9999 17 -9999 -9999 -9999 -9999 -9999 -9999 -9999 -9999 2 3 5 5 6 9 5 6 4 7 9 10 8 9 6 7 6 8 -9999 -9999 -9999 -9999 -9999 -9999 -9999 -9999 -9999 -9999 -9999 -9999 -9999 -9999 -9999 -9999 -9999 -9999 -9999 -9999 7 10 10 9 7 4 10 11 8 13 14 16 14 11 13 12 17 16 20 20 10 19 19 18 24 14 11 -9999
-9999 -9999 -9999 -9999 -9999 -9999 -9999 -9999 -9999 -9999 -9999 -9999 -9999 -9999 -9999 -9999 -9999 -9999 -9999 -9999 -9999 -9999 -9999 -9999 -9999 -9999 -9999 -9999 -9999 -9999 -9999 -9999 -9999 -9999 -9999 -9999 -9999 -9999 -9999 -9999 -9999 -9999 -9999 -9999 -9999 -9999 -9999 -9999 -9999 -9999 -9999 -9999 -9999 -9999 -9999 -9999 -9999 -9999 -9999 -9999 -9999 -9999 -9999 -9999 -9999 10 11 17 19 19 34 24 17 18 15 21 25 54 52 55 98 68 54 70 56 57 61 68 66 74 83 37 48 73 172 168 34 88 110 156 30 23 12 26 161 162 302 233 202 220 412 382 419 458 661 604 520 -9999 604 -9999 601 516 386 342 387 403 472 514 602 610 594 644 592 502 698 484 437 720 497 369 564 576 404 562 322 320 444 494 65 37 44 33 148 164 242 232 173 148 107 69 119 144 177 146 154 115 61 45 81 56 87 52 42 45 12 13 13 14 25 48 92 100 40 42 29 8 12 6 6 6 5 8 3 2 1 2 2 5 8 14 23 50 96 103 90 133 133 133 102 145 160 188 206 83 63 54 68 75 65 63 59 62 66 61 91 89 130 155 144 187 194 217 95 114 102 72 57 53 50 53 53 74 51 43 39 39 33 36 30 28 21 19 13 9 12 -9999 -9999 -9999 -9999 -9999 -9999 -9999 -9999 -9999 -9999 -9999 -9999 -9999 -9999 -9999 -9999 -9999 5 -9999 6 -9999 -9999 -9999 -9999 5 -9999 -9999 -9999 -9999 -9999 -9999 -9999 -9999 -9999 -9999 -9999 -9999 -9999 -9999 -9999 -9999 -9999 -9999 -9999 -9999 -9999 2 -9999 5 9 10 10 10 11 13 11 9 6 11 15 12 12 19 17 17 20 28 33 28 16 5 4 13 12 17
-9999 -9999 -9999 -9999 -9999 -9999 -9999 -9999 -9999 -9999 -9999 -9999 -9999 -9999 -9999 -9999 -9999 -9999 -9999 -9999 -9999 -9999 -9999 -9999 -9999 -9999 -9999 -9999 -9999 -9999 -9999 -9999 -9999 -9999 -9999 -9999 -9999 -9999 -9999 -9999 -9999 -9999 -9999 -9999 -9999 -9999 -9999 -9999 -9999 -9999 -9999 -9999 -9999 -9999 -9999 -9999 -9999 -9999 -9999 -9999 -9999 -9999 -9999 -9999 -9999 -9999 8 13 20 17 24 18 22 21 24 23 30 38 38 53 66 52 62 85 64 55 62 34 64 103 141 15 33 164 146 163 56 101 127 96 76 23 31 37 203 190 346 176 126 385 333 450 600 730 510 -9999 517 505 495 719 451 420 390 -9999 217 199 346 360 451 360 437 446 466 552 419 476 388 454 492 357 407 322 388 369 399 121 101 16 12 14 17 20 26 90 371 392 158 145 224 167 105 72 79 104 84 94 34 198 135 81 24 18 19 39 37 33 6 10 5 4 28 45 32 17 5 6 3 9 4 3 2 5 5 2 1 2 3 3 10 23 29 35 41 40 40 52 75 122 159 104 195 135 129 121 62 67 47 61 48 42 53 67 60 86 123 109 138 140 30 248 187 218 106 144 83 55 42 42 42 46 63 63 48 53 36 32 31 23 26 26 17 14 11 14 -9999 -9999 -9999 -9999 -9999 -9999 -9999 -9999 -9999 -9999 -9999 -9999 -9999 -9999 -9999 -9999 -9999 -9999 -9999 -9999 3 4 6 5 -9999 4 -9999 -9999 -9999 -9999 -9999 -9999 -9999 -9999 -9999 -9999 -9999 -9999 -9999 -9999 -9999 -9999 -9999 -9999 -9999 0 0 1 2 2 5 9 8 8 9 8 11 12 11 9 13 14 16 16 15 20 15 14 21 22 22 13 6 16 18 18
-9999 -9999 -9999 -9999 -9999 -9999 -9999 -9999 -9999 -9999 -9999 -9999 -9999 -9999 -9999 -9999 -9999 -9999 -9999 -9999 -9999 -9999 -9999 -9999 -9999 -9999 -9999 -9999 -9999 -9999 -9999 -9999 -9999 -9999 -9999 -9999 -9999 -9999 -9999 -9999 -9999 -9999 -9999 -9999 -9999 -9999 -9999 -9999 -9999 -9999 -9999 -9999 -9999 -9999 -9999 -9999 -9999 -9999 -9999 -9999 -9999 -9999 -9999 -9999 -9999 8 13 12 27 28 18 37 27 25 47 41 43 43 48 46 42 51 79 70 62 61 34 68 72 110 197 86 92 146 211 177 49 86 84 158 58 32 26 72 83 247 141 245 302 425 447 354 498 523 553 562 714 594 591 458 356 296 166 -9999 47 53 129 122 212 251 268 288 364 326 377 355 -9999 501 464 422 393 426 210 63 72 25 8 3 3 3 2 -9999 2 -9999 114 121 175 157 158 145 181 162 181 212 212 174 87 24 9 13 19 28 36 19 16 28 39 34 22 4 6 3 5 14 31 4 2 7 9 5 5 6 3 2 1 1 2 2 3 4 9 20 14 33 75 213 239 140 140 68 85 308 259 230 249 271 164 49 64 113 153 132 165 119 113 21 45 149 137 134 137 217 139 117 125 15 13 22 39 45 47 47 36 45 25 26 24 22 12 17 10 -9999 -9999 -9999 -9999 -9999 -9999 -9999 -9999 -9999 -9999 -9999 -9999 -9999 -9999 -9999 -9999 -9999 -9999 -9999 -9999 -9999 27 22 12 12 8 5 6 5 -9999 -9999 -9999 -9999 -9999 -9999 -9999 -9999 -9999 -9999 -9999 -9999 -9999 -9999 -9999 -9999 -9999 -9999 -9999 0 0 0 1 3 4 4 9 10 11 12 10 10 15 15 11 8 16 20 20 25 17 20 19 22 32 26 28 38 26 22
-9999 -9999 -9999 -9999 -9999 -9999 -9999 -9999 -9999 -9999 -9999 -9999 -9999 -9999 -9999 -9999 -9999 -9999 -9999 -9999 -9999 -9999 -9999 -9999 -9999 -9999 -9999 -9999 -9999 -9999 -9999 -9999 -9999 -9999 -9999 -9999 -9999 -9999 -9999 -9999 -9999 -9999 -9999 -9999 -9999 -9999 -9999 -9999 -9999 -9999 -9999 -9999 -9999 -9999 -9999 -9999 -9999 -9999 -9999 -9999 -9999 -9999 -9999 -9999 -9999 -9999 13 10 13 20 25 32 35 31 28 37 44 43 52 35 35 57 89 63 76 48 44 83 198 188 146 97 122 150 274 184 142 43 100 174 87 48 68 104 97 101 282 323 390 469 567 492 520 545 467 581 437 438 586 563 283 107 54 43 34 31 33 34 40 33 35 69 156 273 198 -9999 335 293 332 232 124 14 10 7 6 4 2 1 0 -9999 -9999 -9999 -9999 -9999 86 187 95 167 219 177 215 123 212 49 79 24 13 29 30 9 5 29 74 20 19 87 159 213 160 55 10 6 6 3 3 14 13 1 3 9 5 2 3 2 1 1 1 1 2 4 12 35 38 42 71 239 254 163 145 81 198 203 227 177 211 239 350 285 468 378 347 340 284 284 118 280 248 238 194 170 225 201 166 95 98 12 3 12 33 33 44 34 36 40 19 22 16 13 10 5 -9999 -9999 -9999 -9999 -9999 -9999 -9999 -9999 -9999 -9999 -9999 -9999 -9999 -9999 -9999 -9999 -9999 -9999 -9999 32 15 16 20 14 26 17 9 6 7 6 5 3 -9999 -9999 -9999 -9999 -9999 -9999 -9999 -9999 -9999 -9999 -9999 -9999 -9999 -9999 -9999 -9999 0 0 1 0 1 2 2 4 5 8 8 8 14 13 14 13 17 13 15 15 19 15 20 12 9 16 26 32 23 24 27 41
-9999 -9999 -9999 -9999 -9999 -9999 -9999 -9999 -9999 -9999 -9999 -9999 -9999 -9999 -9999 -9999 -9999 -9999 -9999 -9999 -9999 -9999 -9999 -9999 -9999 -9999 -9999 -9999 -9999 -9999 -9999 -9999 -9999 -9999 -9999 -9999 -9999 -9999 -9999 -9999 -9999 -9999 -9999 -9999 -9999 -9999 -9999 -9999 -9999 -9999 -9999 -9999 -9999 -9999 -9999 -9999 -9999 -9999 -9999 -9999 -9999 -9999 -9999 -9999 -9999 5 3 20 20 18 23 28 29 30 28 30 40 40 45 31 37 40 71 97 85 38 80 131 121 107 188 87 157 82 166 103 155 117 215 278 142 66 72 91 87 134 360 470 466 583 427 536 505 319 342 525 545 491 309 86 66 20 17 13 13 18 13 12 12 12 12 16 16 22 35 26 30 46 84 97 81 107 36 3 2 -9999 -9999 -9999 -9999 -9999 -9999 -9999 -9999 50 116 187 216 252 301 305 169 225 159 108 26 39 54 38 31 59 47 9 15 29 65 192 172 125 175 139 42 36 9 7 2 4 5 2 1 1 1 1 3 3 2 1 2 1 2 9 14 25 81 59 118 75 334 334 399 545 373 201 266 320 206 320 353 315 303 226 303 398 295 244 371 210 213 241 186 209 184 145 92 86 60 9 8 2 13 28 19 24 -9999 28 16 16 7 3 1 1 -9999 -9999 -9999 -9999 -9999 -9999 -9999 -9999 -9999 -9999 -9999 -9999 -9999 -9999 -9999 -9999 -9999 42 51 41 33 23 18 15 11 12 12 9 9 11 8 6 -9999 -9999 -9999 -9999 -9999 -9999 31 45 39 34 -9999 -9999 -9999 -9999 -9999 -9999 0 1 1 2 2 2 2 2 4 5 7 8 8 8 14 20 22 24 22 21 19 26 21 23 42 49 42 32 31 39 41 38
-9999 -9999 -9999 -9999 -9999 -9999 -9999 -9999 -9999 -9999 -9999 -9999 -9999 -9999 -9999 -9999 -9999 -9999 -9999 -9999 -9999 -9999 -9999 -9999 -9999 -9999 -9999 -9999 -9999 -9999 -9999 -9999 -9999 -9999 -9999 -9999 -9999 -9999 -9999 -9999 -9999 -9999 -9999 -9999 -9999 -9999 -9999 -9999 -9999 -9999 -9999 -9999 -9999 -9999 -9999 -9999 -9999 -9999 -9999 -9999 -9999 -9999 -9999 -9999 -9999 7 8 -9999 21 17 20 25 29 26 37 39 34 34 43 49 79 84 76 68 80 98 132 188 136 107 172 139 106 185 58 107 127 83 125 206 127 65 79 96 180 482 484 592 480 452 570 564 577 471 567 434 313 137 32 39 25 12 8 6 6 12 13 6 11 5 9 6 7 8 8 12 14 5 5 3 3 28 79 2 1 -9999 -9999 -9999 -9999 -9999 -9999 -9999 -9999 -9999 74 99 134 -9999 -9999 -9999 304 130 188 142 59 39 79 34 91 122 90 60 30 34 49 82 94 123 66 73 77 38 12 12 7 10 15 36 49 50 77 58 8 22 3 5 14 5 2 9 29 58 105 168 231 226 251 274 406 304 230 297 303 399 398 400 370 229 235 143 148 154 105 334 316 225 208 238 124 117 126 101 88 62 13 9 7 4 3 5 19 101 95 49 8 4 2 1 1 1 -9999 -9999 -9999 -9999 -9999 -9999 -9999 -9999 -9999 -9999 -9999 -9999 -9999 -9999 -9999 -9999 -9999 -9999 -9999 -9999 -9999 19 20 18 17 12 13 26 36 43 44 24 20 13 14 19 28 29 30 32 31 -9999 -9999 21 -9999 18 14 22 1 1 1 2 4 2 2 2 3 5 5 15 20 20 19 16 12 9 9 14 31 23 24 44 50 71 38 46 56 62 26 74
-9999 -9999 -9999 -9999 -9999 -9999 -9999 -9999 -9999 -9999 -9999 -9999 -9999 -9999 -9999 -9999 -9999 -9999 -9999 -9999 -9999 -9999 -9999 -9999 -9999 -9999 -9999 -9999 -9999 -9999 -9999 -9999 -9999 -9999 -9999 -9999 -9999 -9999 -9999 -9999 -9999 -9999 -9999 -9999 -9999 -9999 -9999 -9999 -9999 -9999 -9999 -9999 -9999 -9999 -9999 -9999 -9999 -9999 -9999 -9999 -9999 -9999 -9999 -9999 -9999 8 5 12 23 18 22 23 24 25 36 44 33 30 55 60 77 78 128 114 71 59 93 197 180 116 86 113 215 182 109 93 158 111 155 204 124 64 82 161 366 352 354 545 636 446 343 325 509 606 624 505 241 32 106 65 59 56 47 18 8 8 16 66 37 11 8 4 4 4 3 3 3 2 2 2 2 1 1 1 0 1 -9999 -9999 -9999 -9999 -9999 -9999 -9999 -9999 73 61 118 -9999 -9999 79 -9999 350 140 174 161 99 66 82 76 87 63 73 113 185 98 21 5 81 96 27 51 58 3 3 5 6 5 30 47 89 112 82 24 26 7 6 17 28 20 23 81 45 214 139 196 174 234 323 211 291 189 99 64 75 64 74 71 111 90 70 88 86 78 94 89 93 90 88 65 85 116 153 20 10 8 4 4 3 2 4 4 80 73 61 45 45 27 5 1 0 -9999 -9999 -9999 -9999 -9999 -9999 -9999 -9999 -9999 -9999 -9999 -9999 -9999 -9999 -9999 -9999 -9999 -9999 -9999 -9999 -9999 -9999 -9999 11 24 28 42 65 54 52 112 106 135 58 47 -9999 31 27 24 34 32 -9999 -9999 -9999 -9999 13 40 68 59 17 2 1 4 2 4 5 3 5 11 8 12 18 15 14 13 15 19 28 32 33 38 51 79 85 51 37 61 42 55 46
-9999 -9999 -9999 -9999 -9999 -9999 -9999 -9999 -9999 -9999 -9999 -9999 -9999 -9999 -9999 -9999 -9999 -9999 -9999 -9999 -9999 -9999 -9999 -9999 -9999 -9999 -9999 -9999 -9999 -9999 -9999 -9999 -9999 -9999 -9999 -9999 -9999 -9999 -9999 -9999 -9999 -9999 -9999 -9999 -9999 -9999 -9999 -9999 -9999 -9999 -9999 -9999 -9999 -9999 -9999 -9999 -9999 -9999 -9999 -9999 -9999 -9999 -9999 -9999 -9999 7 5 8 16 24 19 27 24 33 42 45 49 55 53 52 69 61 87 133 60 52 76 134 158 113 91 111 130 117 148 125 150 211 172 128 155 34 256 278 244 390 273 462 508 448 560 410 369 349 494 359 100 9 14 27 34 37 34 31 21 67 136 168 187 135 83 52 19 7 4 3 2 2 4 2 2 2 1 0 0 2 1 -9999 -9999 -9999 -9999 -9999 -9999 -9999 -9999 64 -9999 -9999 127 -9999 -9999 405 292 145 142 183 118 89 98 81 82 92 41 186 139 63 47 41 29 47 53 115 65 17 9 8 6 5 2 2 6 11 5 6 6 6 14 24 19 34 39 87 197 244 182 234 264 194 101 61 58 49 45 70 53 53 49 53 70 51 54 62 62 58 50 45 40 31 34 42 17 8 3 5 4 6 8 11 8 2 18 60 58 74 67 -9999 4 3 0 -9999 -9999 -9999 -9999 -9999 -9999 -9999 -9999 -9999 -9999 -9999 -9999 -9999 -9999 -9999 -9999 -9999 -9999 -9999 -9999 -9999 -9999 -9999 -9999 -9999 38 44 72 94 196 248 186 183 183 -9999 -9999 -9999 -9999 -9999 -9999 -9999 -9999 -9999 -9999 -9999 -9999 -9999 64 109 85 55 36 16 19 21 13 8 9 10 11 13 13 18 17 21 19 13 16 18 31 51 98 95 94 93 55 74 68 73 80 55
-9999 -9999 -9999 -9999 -9999 -9999 -9999 -9999 -9999 -9999 -9999 -9999 -9999 -9999 -9999 -9999 -9999 -9999 -9999 -9999 -9999 -9999 -9999 -9999 -9999 -9999 -9999 -9999 -9999 -9999 -9999 -9999 -9999 -9999 -9999 -9999 -9999 -9999 -9999 -9999 -9999 -9999 -9999 -9999 -9999 -9999 -9999 -9999 -9999 -9999 -9999 -9999 -9999 -9999 -9999 -9999 -9999 -9999 -9999 -9999 -9999 -9999 -9999 -9999 7 12 11 7 20 31 20 29 30 31 38 31 33 43 62 60 65 59 26 77 98 107 94 128 104 103 76 69 127 94 110 114 153 310 215 180 115 95 177 197 423 329 425 383 455 463 398 510 388 349 560 475 112 18 20 62 84 88 77 53 55 109 267 286 287 234 240 141 91 65 33 20 8 5 3 2 2 2 1 0 0 -9999 -9999 -9999 -9999 -9999 -9999 -9999 -9999 -9999 -9999 -9999 -9999 -9999 82 -9999 -9999 596 268 143 155 121 263 316 187 255 275 157 119 122 104 136 93 77 75 38 78 129 93 165 113 82 32 9 6 15 15 13 3 13 51 66 22 7 10 34 93 140 150 173 181 218 184 156 99 46 54 51 67 64 47 49 46 55 44 35 39 24 27 40 34 19 18 14 9 7 6 7 7 6 5 4 4 8 7 9 35 47 56 71 43 -9999 -9999 -9999 -9999 -9999 -9999 -9999 -9999 -9999 -9999 -9999 -9999 -9999 -9999 -9999 -9999 -9999 -9999 -9999 -9999 -9999 -9999 -9999 -9999 -9999 -9999 -9999 -9999 44 62 96 91 219 396 -9999 -9999 -9999 -9999 -9999 -9999 -9999 -9999 -9999 -9999 -9999 -9999 -9999 -9999 -9999 -9999 -9999 125 98 130 148 129 75 149 85 57 77 43 24 21 21 26 24 21 30 44 35 22 27 24 36 57 66 43 136 109 49 54 58 121 71
-9999 -9999 -9999 -9999 -9999 -9999 -9999 -9999 -9999 -9999 -9999 -9999 -9999 -9999 -9999 -9999 -9999 -9999 -9999 -9999 -9999 -9999 -9999 -9999 -9999 -9999 -9999 -9999 -9999 -9999 -9999 -9999 -9999 -9999 -9999 -9999 -9999 -9999 -9999 -9999 -9999 -9999 -9999 -9999 -9999 -9999 -9999 -9999 -9999 -9999 -9999 -9999 -9999 -9999 -9999 -9999 -9999 -9999 -9999 -9999 -9999 -9999 -9999 -9999 -9999 11 12 10 11 21 30 25 31 25 20 26 26 46 52 47 55 55 58 60 73 93 120 115 177 242 126 171 134 177 82 158 294 216 92 170 95 109 159 205 237 211 302 400 298 477 611 527 370 281 461 405 265 41 37 82 131 137 111 161 199 162 213 232 237 252 200 181 276 180 148 151 85 42 18 11 10 6 2 1 2 1 -9999 -9999 -9999 -9999 -9999 -9999 -9999 -9999 -9999 -9999 -9999 -9999 -9999 -9999 -9999 -9999 455 192 61 130 197 259 184 221 177 280 167 149 253 233 222 185 157 101 99 136 79 95 112 148 122 39 94 68 42 34 18 40 57 48 58 43 7 37 42 93 140 172 202 164 108 60 101 46 54 58 57 58 48 36 40 46 32 23 23 19 17 13 10 9 9 8 6 5 6 7 11 13 11 11 11 11 25 8 39 30 34 45 25 -9999 -9999 -9999 -9999 -9999 -9999 -9999 -9999 -9999 -9999 -9999 -9999 -9999 -9999 -9999 -9999 -9999 -9999 -9999 -9999 -9999 -9999 -9999 -9999 -9999 -9999 -9999 -9999 77 132 185 293 480 -9999 -9999 -9999 -9999 -9999 -9999 -9999 -9999 -9999 -9999 -9999 -9999 -9999 -9999 -9999 -9999 -9999 -9999 -9999 -9999 -9999 -9999 203 168 151 119 103 75 102 68 45 77 60 66 44 67 58 46 40 51 38 51 56 28 39 52 89 61 40 76 76 47
-9999 -9999 -9999 -9999 -9999 -9999 -9999 -9999 -9999 -9999 -9999 -9999 -9999 -9999 -9999 -9999 -9999 -9999 -9999 -9999 -9999 -9999 -9999 -9999 -9999 -9999 -9999 -9999 -9999 -9999 -9999 -9999 -9999 -9999 -9999 -9999 -9999 -9999 -9999 -9999 -9999 -9999 -9999 -9999 -9999 -9999 -9999 -9999 -9999 -9999 -9999 -9999 -9999 -9999 -9999 -9999 -9999 -9999 -9999 -9999 -9999 -9999 -9999 -9999 18 10 8 10 7 19 19 26 39 27 36 46 43 50 56 59 55 53 62 57 79 70 108 38 103 93 128 102 122 240 211 330 214 72 103 117 82 107 216 251 206 196 180 291 264 244 405 476 424 330 410 399 212 49 66 105 114 106 158 377 -9999 -9999 278 329 393 245 288 329 275 279 156 159 191 171 185 119 112 71 16 6 3 1 -9999 -9999 -9999 -9999 -9999 -9999 -9999 -9999 -9999 -9999 -9999 -9999 -9999 -9999 -9999 -9999 117 463 347 243 140 196 251 227 274 182 273 230 230 207 206 265 310 214 161 174 124 208 179 153 111 162 113 53 86 70 51 59 53 62 44 36 38 52 52 142 168 99 147 109 100 25 28 62 38 28 36 41 52 24 32 32 31 17 18 14 15 12 9 13 8 7 7 9 8 6 8 4 5 4 4 4 13 17 32 30 28 37 -9999 -9999 -9999 -9999 -9999 -9999 -9999 -9999 -9999 -9999 -9999 -9999 -9999 -9999 -9999 -9999 -9999 -9999 -9999 -9999 -9999 -9999 -9999 -9999 -9999 -9999 -9999 -9999 -9999 -9999 204 419 -9999 -9999 -9999 -9999 -9999 -9999 -9999 -9999 -9999 -9999 -9999 -9999 -9999 -9999 -9999 -9999 -9999 -9999 -9999 -9999 -9999 -9999 -9999 -9999 -9999 128 115 135 99 136 142 100 135 90 65 48 91 109 63 83 53 69 83 80 92 86 59 62 68 61 103 58 66 63
-9999 -9999 -9999 -9999 -9999 -9999 -9999 -9999 -9999 -9999 -9999 -9999 -9999 -9999 -9999 -9999 -9999 -9999 -9999 -9999 -9999 -9999 -9999 -9999 -9999 -9999 -9999 -9999 -9999 -9999 -9999 -9999 -9999 -9999 -9999 -9999 -9999 -9999 -9999 -9999 -9999 -9999 -9999 -9999 -9999 -9999 -9999 -9999 -9999 -9999 -9999 -9999 -9999 -9999 -9999 -9999 -9999 -9999 -9999 -9999 -9999 -9999 -9999 -9999 15 12 8 11 13 10 16 13 21 43 50 55 49 45 52 45 50 52 38 64 93 105 87 66 54 84 136 147 99 160 247 165 102 62 77 72 49 63 106 284 183 170 237 124 279 309 397 305 317 394 440 587 463 455 548 369 163 280 174 -9999 -9999 -9999 -9999 -9999 -9999 220 263 220 275 347 313 229 336 177 176 221 175 148 106 77 11 8 -9999 -9999 -9999 -9999 -9999 -9999 -9999 -9999 -9999 -9999 -9999 -9999 -9999 -9999 -9999 -9999 -9999 24 157 424 295 256 239 240 231 212 201 282 210 245 178 350 300 220 149 179 209 161 195 170 148 156 193 218 155 133 103 76 87 90 53 52 42 50 119 141 149 105 178 152 55 33 27 23 47 38 26 25 41 37 19 19 23 17 9 12 12 14 7 7 10 11 11 10 14 11 8 14 12 12 10 18 32 43 38 32 25 27 -9999 -9999 -9999 -9999 -9999 -9999 -9999 -9999 -9999 -9999 -9999 -9999 -9999 -9999 -9999 -9999 -9999 -9999 -9999 -9999 -9999 -9999 -9999 -9999 -9999 -9999 -9999 -9999 -9999 -9999 -9999 -9999 -9999 -9999 -9999 -9999 -9999 -9999 -9999 -9999 -9999 -9999 -9999 -9999 -9999 -9999 -9999 -9999 -9999 -9999 -9999 -9999 -9999 -9999 -9999 -9999 -9999 -9999 -9999 -9999 -9999 130 167 187 175 180 143 262 219 142 156 139 125 84 112 70 81 89 80 95 59 -9999 71 48 49 64
-9999 -9999 -9999 -9999 -9999 -9999 -9999 -9999 -9999 -9999 -9999 -9999 -9999 -9999 -9999 -9999 -9999 -9999 -9999 -9999 -9999 -9999 -9999 -9999 -9999 -9999 -9999 -9999 -9999 -9999 -9999 -9999 -9999 -9999 -9999 -9999 -9999 -9999 -9999 -9999 -9999 -9999 -9999 -9999 -9999 -9999 -9999 -9999 -9999 -9999 -9999 -9999 -9999 -9999 -9999 -9999 -9999 -9999 -9999 -9999 -9999 -9999 -9999 -9999 15 13 6 9 11 15 16 9 17 28 31 37 43 39 34 29 35 43 78 66 61 69 54 111 194 188 144 116 180 312 164 110 68 79 67 63 39 29 116 341 157 180 293 250 184 224 310 315 465 382 462 506 434 413 384 355 285 -9999 -9999 -9999 -9999 -9999 -9999 -9999 -9999 -9999 -9999 104 332 331 264 469 337 274 219 225 187 170 161 127 103 97 54 -9999 -9999 -9999 -9999 -9999 -9999 -9999 -9999 -9999 -9999 -9999 -9999 -9999 -9999 -9999 -9999 -9999 44 83 100 95 154 273 291 365 233 208 159 191 177 195 343 237 147 233 125 132 140 132 313 220 242 263 184 139 138 116 71 158 74 47 118 57 86 192 151 192 114 99 72 82 48 24 21 23 31 30 28 33 11 7 15 28 10 9 13 14 13 5 7 11 32 34 25 37 44 46 45 53 49 47 46 43 22 17 18 26 -9999 -9999 -9999 -9999 -9999 -9999 -9999 -9999 -9999 -9999 -9999 -9999 -9999 -9999 -9999 -9999 -9999 -9999 -9999 -9999 -9999 -9999 -9999 -9999 -9999 -9999 -9999 -9999 -9999 -9999 -9999 -9999 -9999 -9999 -9999 -9999 -9999 -9999 -9999 -9999 -9999 -9999 -9999 -9999 -9999 -9999 -9999 -9999 -9999 -9999 -9999 -9999 -9999 -9999 -9999 -9999 -9999 -9999 -9999 -9999 -9999 -9999 -9999 169 296 304 312 405 349 270 348 244 174 151 264 163 176 124 136 158 187 189 186 184 131 65
-9999 -9999 -9999 -9999 -9999 -9999 -9999 -9999 -9999 -9999 -9999 -9999 -9999 -9999 -9999 -9999 -9999 -9999 -9999 -9999 -9999 -9999 -9999 -9999 -9999 -9999 -9999 -9999 -9999 -9999 -9999 -9999 -9999 -9999 -9999 -9999 -9999 -9999 -9999 -9999 -9999 -9999 -9999 -9999 -9999 -9999 -9999 -9999 -9999 -9999 -9999 -9999 -9999 -9999 -9999 -9999 -9999 -9999 -9999 -9999 -9999 -9999 -9999 -9999 16 10 16 18 16 16 17 20 18 26 32 37 33 38 39 20 32 32 47 41 42 68 109 124 82 113 114 54 87 157 136 81 43 38 50 56 40 20 137 181 266 164 104 104 101 292 231 254 229 247 316 292 360 404 304 309 196 -9999 -9999 -9999 -9999 -9999 -9999 -9999 -9999 -9999 -9999 -9999 -9999 200 293 296 295 173 251 160 166 256 226 160 174 161 210 120 63 -9999 -9999 -9999 -9999 -9999 -9999 -9999 -9999 -9999 -9999 -9999 -9999 -9999 -9999 -9999 -9999 74 62 66 112 173 266 354 270 280 167 113 219 265 280 290 147 117 255 172 168 149 176 312 317 252 139 128 139 118 101 143 94 151 100 115 67 173 128 210 75 82 61 39 69 11 8 11 15 9 20 23 11 10 18 7 29 13 20 10 19 5 22 29 39 40 41 41 34 34 41 35 38 39 32 27 26 22 14 21 -9999 -9999 -9999 -9999 -9999 -9999 -9999 -9999 -9999 -9999 -9999 -9999 -9999 -9999 -9999 -9999 -9999 -9999 -9999 -9999 -9999 -9999 -9999 -9999 -9999 -9999 -9999 -9999 -9999 -9999 -9999 -9999 -9999 -9999 -9999 -9999 -9999 -9999 -9999 -9999 -9999 -9999 -9999 -9999 -9999 -9999 -9999 -9999 -9999 -9999 -9999 -9999 -9999 -9999 -9999 -9999 -9999 -9999 -9999 -9999 -9999 -9999 -9999 -9999 252 269 300 462 375 398 386 349 320 315 188 182 202 163 168 232 279 227 181 190 186 199
-9999 -9999 -9999 -9999 -9999 -9999 -9999 -9999 -9999 -9999 -9999 -9999 -9999 -9999 -9999 -9999 -9999 -9999 -9999 -9999 -9999 -9999 -9999 -9999 165 -9999 -9999 -9999 -9999 -9999 -9999 -9999 -9999 -9999 -9999 -9999 -9999 -9999 -9999 -9999 -9999 -9999 -9999 -9999 -9999 -9999 -9999 -9999 -9999 -9999 -9999 -9999 -9999 -9999 -9999 -9999 -9999 -9999 -9999 -9999 -9999 -9999 -9999 11 15 24 20 25 27 30 25 22 25 27 34 36 25 27 33 30 30 37 37 49 39 81 90 123 184 164 150 177 227 184 70 52 33 34 30 21 54 80 125 151 212 152 69 74 72 235 174 154 271 311 382 200 298 -9999 -9999 -9999 -9999 -9999 -9999 -9999 -9999 -9999 -9999 -9999 -9999 -9999 -9999 -9999 -9999 -9999 119 189 22 108 71 86 117 278 233 210 183 200 166 98 119 71 55 -9999 -9999 -9999 -9999 -9999 -9999 -9999 -9999 -9999 -9999 -9999 -9999 -9999 -9999 -9999 -9999 87 83 94 257 207 339 278 223 152 204 356 311 394 328 407 255 260 173 187 245 283 187 130 138 145 136 109 163 61 116 176 97 119 57 151 129 214 188 171 169 74 57 68 50 42 35 49 35 60 38 -9999 33 10 30 52 31 32 21 20 31 54 28 36 38 34 35 30 30 29 28 33 19 16 23 24 21 -9999 -9999 -9999 -9999 -9999 -9999 -9999 -9999 -9999 -9999 -9999 -9999 -9999 -9999 -9999 -9999 -9999 -9999 -9999 -9999 -9999 -9999 -9999 -9999 -9999 -9999 -9999 -9999 -9999 -9999 -9999 -9999 -9999 -9999 -9999 -9999 -9999 -9999 -9999 -9999 -9999 -9999 -9999 -9999 -9999 -9999 -9999 -9999 -9999 -9999 -9999 -9999 -9999 -9999 -9999 -9999 -9999 -9999 -9999 -9999 -9999 -9999 -9999 -9999 -9999 -9999 167 256 356 423 651 422 476 417 482 368 299 213 211 218 208 193 177 251 193 202 176
-9999 -9999 -9999 -9999 -9999 -9999 -9999 -9999 -9999 -9999 -9999 -9999 -9999 -9999 -9999 -9999 -9999 -9999 -9999 -9999 -9999 -9999 -9999 101 125 129 191 153 -9999 -9999 -9999 -9999 -9999 -9999 -9999 -9999 62 -9999 -9999 -9999 -9999 -9999 -9999 -9999 -9999 -9999 -9999 -9999 -9999 -9999 -9999 -9999 -9999 -9999 -9999 -9999 -9999 -9999 -9999 -9999 -9999 -9999 -9999 16 19 28 29 34 28 38 43 46 25 29 35 34 29 23 46 24 27 27 28 39 40 51 146 94 177 322 155 95 81 78 55 23 5 7 3 2 9 16 53 73 89 145 80 80 100 212 240 275 123 145 81 -9999 -9999 -9999 -9999 -9999 -9999 -9999 -9999 -9999 -9999 -9999 -9999 -9999 -9999 -9999 -9999 -9999 -9999 -9999 82 62 42 105 74 87 191 307 308 258 184 210 121 255 137 103 67 48 68 -9999 -9999 -9999 -9999 -9999 -9999 -9999 -9999 -9999 -9999 -9999 -9999 -9999 -9999 -9999 133 161 208 230 118 159 147 144 229 443 445 473 366 253 279 210 243 233 237 222 227 222 150 167 225 170 201 260 297 276 129 59 72 66 165 235 147 104 194 181 130 111 35 23 27 30 36 35 22 36 52 49 55 71 68 78 58 54 62 49 62 67 53 45 54 51 47 44 26 36 28 15 21 25 23 -9999 -9999 -9999 -9999 -9999 -9999 -9999 -9999 -9999 -9999 -9999 -9999 -9999 -9999 -9999 -9999 -9999 -9999 -9999 -9999 -9999 -9999 -9999 -9999 -9999 -9999 -9999 -9999 -9999 -9999 -9999 -9999 -9999 -9999 -9999 -9999 -9999 -9999 -9999 -9999 -9999 -9999 -9999 -9999 -9999 -9999 -9999 -9999 -9999 -9999 -9999 -9999 -9999 -9999 -9999 -9999 -9999 -9999 -9999 -9999 -9999 -9999 -9999 -9999 -9999 -9999 -9999 122 244 346 450 445 358 378 416 322 427 395 438 386 481 281 191 107 179 257 320
-9999 -9999 -9999 -9999 -9999 -9999 -9999 -9999 -9999 -9999 -9999 -9999 -9999 -9999 -9999 -9999 -9999 -9999 -9999 -9999 -9999 -9999 -9999 129 84 91 140 171 160 217 255 235 187 234 187 134 97 80 115 122 216 166 237 337 -9999 -9999 -9999 -9999 59 79 98 -9999 -9999 -9999 79 131 -9999 -9999 -9999 -9999 -9999 -9999 36 68 74 46 39 46 37 38 44 56 34 43 36 37 32 45 33 23 36 34 27 45 172 163 224 195 158 165 55 32 25 -9999 -9999 -9999 -9999 -9999 -9999 -9999 -9999 -9999 -9999 85 107 101 155 113 97 66 59 101 -9999 -9999 -9999 -9999 -9999 -9999 -9999 -9999 -9999 -9999 -9999 -9999 -9999 -9999 -9999 -9999 -9999 -9999 -9999 -9999 -9999 -9999 80 155 117 116 76 123 113 112 83 171 166 99 102 148 258 119 208 148 51 53 -9999 -9999 -9999 -9999 -9999 -9999 -9999 -9999 -9999 -9999 -9999 -9999 -9999 -9999 -9999 -9999 -9999 -9999 246 288 274 175 268 383 307 463 200 317 315 269 301 241 236 168 187 254 230 96 161 233 178 175 291 263 128 164 276 206 118 150 150 176 141 310 397 175 111 66 49 41 43 36 32 51 28 66 42 39 37 40 33 46 94 68 66 73 68 67 58 68 94 85 37 44 32 61 103 82 50 -9999 -9999 -9999 -9999 -9999 -9999 -9999 -9999 -9999 -9999 -9999 -9999 -9999 -9999 -9999 -9999 -9999 -9999 -9999 -9999 -9999 -9999 -9999 -9999 -9999 -9999 -9999 -9999 -9999 -9999 -9999 -9999 -9999 -9999 -9999 -9999 -9999 -9999 -9999 -9999 -9999 -9999 -9999 -9999 -9999 -9999 -9999 -9999 -9999 -9999 -9999 -9999 -9999 -9999 -9999 -9999 -9999 -9999 -9999 -9999 -9999 -9999 -9999 -9999 -9999 -9999 -9999 -9999 -9999 241 551 582 497 528 505 466 427 373 387 569 434 542 449 732 448 365 429
-9999 -9999 -9999 -9999 -9999 -9999 -9999 -9999 -9999 -9999 -9999 -9999 -9999 -9999 -9999 -9999 -9999 -9999 94 76 144 135 89 113 65 48 32 64 151 134 181 249 177 244 273 269 406 189 221 220 337 374 569 569 353 261 221 182 205 237 355 181 165 168 164 116 164 174 204 170 176 186 192 211 116 123 93 74 54 64 50 38 49 78 81 65 52 47 45 44 40 39 29 66 49 70 60 48 43 35 37 18 -9999 -9999 -9999 -9999 -9999 -9999 -9999 -9999 -9999 -9999 -9999 -9999 114 145 223 164 153 115 157 85 -9999 -9999 -9999 -9999 -9999 -9999 -9999 -9999 -9999 -9999 -9999 -9999 -9999 -9999 -9999 -9999 -9999 -9999 -9999 -9999 -9999 -9999 -9999 93 125 182 96 101 49 79 72 95 188 110 149 103 223 222 206 128 58 51 -9999 -9999 -9999 -9999 -9999 -9999 -9999 -9999 -9999 -9999 -9999 -9999 -9999 -9999 -9999 -9999 -9999 -9999 -9999 -9999 485 221 157 129 107 336 216 178 179 216 341 267 307 244 133 191 299 140 98 200 302 130 397 208 159 109 87 140 48 161 219 310 181 201 315 375 440 128 269 156 99 80 77 45 61 53 72 119 143 64 49 57 104 86 84 78 91 111 72 120 79 82 66 92 132 129 -9999 -9999 -9999 -9999 -9999 -9999 -9999 -9999 -9999 -9999 -9999 -9999 -9999 -9999 -9999 -9999 -9999 -9999 -9999 -9999 -9999 -9999 -9999 -9999 -9999 -9999 -9999 -9999 -9999 -9999 -9999 -9999 -9999 -9999 -9999 -9999 -9999 -9999 -9999 -9999 -9999 -9999 -9999 -9999 -9999 -9999 -9999 -9999 -9999 -9999 -9999 -9999 -9999 -9999 -9999 -9999 -9999 -9999 -9999 -9999 -9999 -9999 -9999 -9999 -9999 -9999 -9999 -9999 -9999 -9999 -9999 -9999 -9999 -9999 590 826 631 378 573 425 456 674 -9999 443 389 429 -9999 522 -9999 -9999
-9999 -9999 -9999 -9999 -9999 -9999 -9999 -9999 -9999 -9999 -9999 -9999 -9999 -9999 -9999 -9999 -9999 103 78 73 62 51 58 48 82 51 44 81 129 137 232 234 276 310 337 364 399 404 401 314 264 249 229 438 406 327 299 253 195 251 223 178 218 245 203 289 198 160 157 268 186 209 298 239 341 304 257 319 408 432 430 273 285 231 125 113 90 99 65 94 82 86 78 45 102 119 148 97 91 77 -9999 -9999 -9999 -9999 -9999 -9999 -9999 -9999 -9999 -9999 -9999 -9999 -9999 -9999 -9999 -9999 -9999 -9999 -9999 -9999 -9999 -9999 -9999 -9999 -9999 -9999 -9999 -9999 -9999 -9999 -9999 -9999 -9999 -9999 -9999 -9999 -9999 -9999 -9999 -9999 -9999 -9999 -9999 -9999 -9999 128 81 187 117 99 120 72 105 47 55 75 88 179 188 178 202 304 109 88 84 -9999 -9999 -9999 -9999 -9999 -9999 -9999 -9999 -9999 -9999 -9999 -9999 -9999 -9999 -9999 -9999 -9999 -9999 -9999 -9999 -9999 192 124 118 160 206 211 236 180 267 353 256 228 228 239 195 176 90 100 177 206 196 253 216 145 183 199 56 81 173 359 159 230 221 209 250 247 250 307 129 165 149 112 61 125 131 84 99 90 89 82 82 100 99 119 102 100 125 136 115 74 66 54 69 64 -9999 -9999 -9999 -9999 -9999 -9999 -9999 -9999 -9999 -9999 -9999 -9999 -9999 -9999 -9999 -9999 -9999 -9999 -9999 -9999 -9999 -9999 -9999 -9999 -9999 -9999 -9999 -9999 -9999 -9999 -9999 -9999 -9999 -9999 -9999 -9999 -9999 -9999 -9999 -9999 -9999 -9999 -9999 -9999 -9999 -9999 -9999 -9999 -9999 -9999 -9999 -9999 -9999 -9999 -9999 -9999 -9999 -9999 -9999 -9999 -9999 -9999 -9999 -9999 -9999 -9999 -9999 -9999 -9999 -9999 -9999 -9999 -9999 -9999 -9999 -9999 -9999 413 451 390 509 557 543 488 513 669 670 696 652 586
-9999 -9999 -9999 -9999 -9999 -9999 -9999 -9999 -9999 -9999 -9999 -9999 -9999 -9999 -9999 -9999 -9999 142 96 90 93 56 61 107 95 60 78 61 118 152 280 323 255 238 199 225 201 188 192 221 166 180 179 238 228 258 225 96 98 109 168 104 129 158 156 103 112 193 212 232 241 109 138 142 164 178 233 318 454 438 505 527 409 450 358 391 375 369 366 211 316 279 371 261 206 167 131 121 130 135 -9999 -9999 -9999 -9999 -9999 -9999 -9999 -9999 -9999 -9999 -9999 -9999 -9999 -9999 -9999 -9999 -9999 -9999 -9999 -9999 -9999 -9999 -9999 -9999 -9999 -9999 -9999 -9999 -9999 -9999 -9999 -9999 -9999 -9999 -9999 -9999 -9999 -9999 239 -9999 -9999 -9999 -9999 -9999 -9999 -9999 -9999 102 76 79 216 329 139 173 112 122 114 98 346 192 269 403 131 143 84 -9999 -9999 -9999 -9999 -9999 -9999 -9999 -9999 -9999 -9999 -9999 -9999 -9999 -9999 -9999 -9999 -9999 74 117 154 -9999 135 -9999 149 144 221 152 176 123 200 252 213 296 322 317 397 195 154 175 299 306 164 228 236 102 152 169 117 146 170 320 223 220 135 97 121 146 189 242 231 218 187 190 260 192 141 177 181 140 117 123 157 122 117 140 148 190 145 127 135 127 113 106 63 -9999 -9999 -9999 -9999 -9999 -9999 -9999 -9999 -9999 -9999 -9999 -9999 -9999 -9999 -9999 -9999 -9999 -9999 -9999 -9999 -9999 -9999 -9999 -9999 -9999 -9999 -9999 -9999 -9999 -9999 -9999 -9999 -9999 -9999 -9999 -9999 -9999 -9999 -9999 -9999 -9999 -9999 -9999 -9999 -9999 -9999 -9999 -9999 -9999 -9999 -9999 -9999 -9999 -9999 -9999 -9999 -9999 -9999 -9999 -9999 -9999 -9999 -9999 -9999 -9999 -9999 -9999 -9999 -9999 -9999 -9999 -9999 -9999 -9999 -9999 -9999 -9999 -9999 -9999 -9999 178 406 561 770 459 540 514 454 560 490 460
-9999 -9999 -9999 -9999 -9999 -9999 -9999 -9999 -9999 -9999 -9999 -9999 -9999 -9999 -9999 -9999 -9999 91 175 157 121 142 124 96 98 82 121 97 195 203 246 237 141 303 276 139 94 120 87 99 74 128 86 124 85 68 68 113 111 105 139 157 182 201 102 97 132 137 173 217 213 135 171 120 155 144 196 359 350 271 453 371 442 417 514 558 425 349 381 555 460 498 419 294 363 381 271 129 77 20 -9999 -9999 -9999 -9999 -9999 -9999 -9999 -9999 -9999 -9999 -9999 -9999 -9999 -9999 -9999 -9999 -9999 -9999 -9999 -9999 -9999 -9999 -9999 -9999 -9999 -9999 -9999 -9999 -9999 -9999 -9999 -9999 -9999 -9999 -9999 -9999 -9999 -9999 322 -9999 -9999 -9999 -9999 -9999 -9999 -9999 -9999 -9999 24 132 169 203 140 105 133 171 107 196 250 273 256 316 414 318 110 71 -9999 -9999 -9999 -9999 -9999 -9999 -9999 -9999 -9999 -9999 -9999 -9999 -9999 -9999 -9999 -9999 -9999 -9999 -9999 -9999 -9999 -9999 -9999 271 219 211 167 168 116 -9999 282 264 328 262 305 324 244 468 490 178 79 106 59 118 119 151 173 211 189 236 236 163 119 78 107 58 89 218 214 256 303 362 325 338 346 470 395 272 263 175 189 299 250 185 197 143 82 100 115 108 92 128 134 -9999 -9999 -9999 -9999 -9999 -9999 -9999 -9999 -9999 -9999 -9999 -9999 -9999 -9999 -9999 -9999 -9999 -9999 -9999 -9999 -9999 -9999 -9999 -9999 -9999 -9999 -9999 -9999 -9999 -9999 -9999 -9999 -9999 -9999 -9999 -9999 -9999 -9999 -9999 -9999 -9999 -9999 -9999 -9999 -9999 -9999 -9999 -9999 -9999 -9999 -9999 -9999 -9999 -9999 -9999 -9999 -9999 -9999 -9999 -9999 -9999 -9999 -9999 -9999 -9999 -9999 -9999 -9999 -9999 -9999 -9999 -9999 -9999 -9999 -9999 -9999 -9999 -9999 -9999 -9999 -9999 23 67 422 562 498 600 424 439 483 480
-9999 -9999 -9999 -9999 -9999 -9999 -9999 -9999 -9999 -9999 -9999 -9999 -9999 -9999 -9999 -9999 -9999 -9999 -9999 99 142 117 119 92 115 108 116 128 201 216 214 137 103 225 152 64 62 60 43 51 48 50 48 50 45 39 72 82 57 43 103 130 61 101 79 188 191 154 134 96 64 86 132 158 152 194 155 192 174 292 302 365 514 494 510 454 416 317 476 421 335 395 318 288 232 424 546 381 129 96 -9999 -9999 -9999 -9999 -9999 -9999 -9999 -9999 -9999 -9999 -9999 -9999 -9999 -9999 -9999 -9999 -9999 -9999 -9999 -9999 -9999 -9999 -9999 -9999 -9999 -9999 -9999 -9999 -9999 -9999 -9999 -9999 -9999 -9999 -9999 359 280 361 285 -9999 -9999 -9999 -9999 -9999 -9999 -9999 -9999 -9999 -9999 84 65 60 85 -9999 102 138 116 229 212 264 258 180 354 305 119 101 -9999 -9999 -9999 -9999 -9999 -9999 -9999 -9999 -9999 -9999 -9999 -9999 -9999 -9999 -9999 -9999 -9999 -9999 -9999 -9999 -9999 -9999 -9999 -9999 -9999 211 313 256 204 168 401 472 395 259 299 330 244 522 36 70 78 98 28 121 108 145 202 251 270 204 183 129 128 100 112 424 242 177 129 155 209 266 246 267 139 272 170 126 104 226 149 101 95 61 26 43 45 42 67 59 81 46 -9999 -9999 -9999 -9999 -9999 -9999 -9999 -9999 -9999 -9999 -9999 -9999 -9999 -9999 -9999 -9999 -9999 -9999 -9999 -9999 -9999 -9999 -9999 -9999 -9999 -9999 -9999 -9999 -9999 -9999 -9999 -9999 -9999 -9999 -9999 -9999 -9999 -9999 -9999 -9999 -9999 -9999 -9999 -9999 -9999 -9999 -9999 -9999 -9999 -9999 -9999 -9999 -9999 -9999 -9999 -9999 -9999 -9999 -9999 -9999 -9999 -9999 -9999 -9999 -9999 -9999 -9999 -9999 -9999 -9999 -9999 -9999 -9999 -9999 -9999 -9999 -9999 -9999 -9999 -9999 -9999 -9999 -9999 7 62 57 67 344 428 487 304 320
-9999 -9999 -9999 -9999 -9999 -9999 -9999 -9999 -9999 -9999 -9999 -9999 -9999 -9999 -9999 -9999 -9999 -9999 -9999 141 138 186 175 125 137 179 236 202 232 285 279 367 337 223 94 53 42 22 30 21 26 31 43 27 29 24 30 39 41 49 43 95 114 192 161 94 198 113 81 53 43 50 89 98 132 116 148 143 195 190 183 232 207 384 317 254 281 490 444 307 418 535 529 245 384 387 408 297 277 266 195 -9999 -9999 -9999 -9999 -9999 -9999 -9999 -9999 -9999 -9999 -9999 -9999 -9999 -9999 -9999 -9999 -9999 -9999 -9999 -9999 -9999 -9999 -9999 -9999 -9999 -9999 -9999 -9999 -9999 -9999 -9999 -9999 -9999 306 463 422 328 300 -9999 -9999 -9999 -9999 -9999 -9999 -9999 -9999 -9999 -9999 -9999 58 73 80 61 130 191 75 188 246 389 345 256 405 413 467 207 59 71 -9999 -9999 -9999 -9999 -9999 -9999 -9999 -9999 -9999 -9999 -9999 -9999 -9999 -9999 -9999 -9999 -9999 -9999 -9999 -9999 -9999 -9999 -9999 -9999 -9999 -9999 453 229 229 86 333 402 435 456 587 364 46 151 120 199 141 119 99 112 119 139 204 174 222 144 209 175 98 162 112 75 122 158 142 109 78 52 59 161 202 190 117 145 84 19 53 35 21 51 45 47 42 30 35 62 -9999 -9999 -9999 -9999 -9999 -9999 -9999 -9999 -9999 -9999 -9999 -9999 -9999 -9999 -9999 -9999 -9999 -9999 -9999 -9999 -9999 -9999 -9999 -9999 -9999 -9999 -9999 -9999 -9999 -9999 -9999 -9999 -9999 -9999 -9999 -9999 -9999 -9999 -9999 -9999 -9999 -9999 -9999 -9999 -9999 -9999 -9999 -9999 -9999 -9999 -9999 -9999 -9999 -9999 -9999 -9999 -9999 -9999 -9999 -9999 -9999 -9999 -9999 -9999 -9999 -9999 -9999 -9999 -9999 -9999 -9999 -9999 -9999 -9999 -9999 -9999 -9999 -9999 -9999 -9999 -9999 -9999 -9999 4 45 63 39 80 278 316 282 392
-9999 -9999 -9999 -9999 -9999 -9999 -9999 -9999 -9999 -9999 -9999 -9999 -9999 -9999 -9999 -9999 -9999 -9999 -9999 -9999 143 223 231 137 102 120 205 190 320 192 202 276 264 211 170 42 37 14 21 30 25 20 22 28 18 27 46 56 49 33 45 145 230 272 291 266 191 163 177 148 99 37 53 45 57 104 97 107 235 291 319 286 152 170 215 167 226 304 340 342 320 349 336 409 276 322 253 246 188 58 65 -9999 -9999 -9999 -9999 -9999 -9999 -9999 -9999 -9999 -9999 -9999 -9999 -9999 -9999 -9999 -9999 -9999 -9999 -9999 -9999 -9999 -9999 -9999 -9999 -9999 -9999 -9999 -9999 -9999 -9999 -9999 -9999 -9999 341 397 456 241 325 -9999 -9999 -9999 -9999 -9999 -9999 -9999 -9999 -9999 -9999 -9999 -9999 -9999 55 85 113 97 54 72 231 190 255 320 437 276 266 258 385 121 89 -9999 -9999 -9999 -9999 -9999 -9999 -9999 -9999 -9999 -9999 -9999 -9999 -9999 -9999 -9999 -9999 -9999 -9999 -9999 -9999 -9999 -9999 -9999 -9999 -9999 -9999 371 264 -9999 142 449 363 396 303 189 261 347 282 381 422 178 279 185 89 208 235 252 195 375 204 118 219 665 402 499 609 298 147 40 37 17 14 17 31 87 81 21 13 17 39 44 51 26 51 50 72 94 91 96 49 -9999 -9999 -9999 -9999 -9999 -9999 -9999 -9999 -9999 -9999 -9999 -9999 -9999 -9999 -9999 -9999 -9999 -9999 -9999 -9999 -9999 -9999 -9999 -9999 -9999 -9999 -9999 -9999 -9999 -9999 -9999 -9999 -9999 -9999 -9999 -9999 -9999 -9999 -9999 -9999 -9999 -9999 -9999 -9999 -9999 -9999 -9999 -9999 -9999 -9999 -9999 -9999 -9999 -9999 -9999 -9999 -9999 -9999 -9999 -9999 -9999 -9999 -9999 -9999 -9999 -9999 -9999 -9999 -9999 -9999 -9999 -9999 -9999 -9999 -9999 -9999 -9999 -9999 -9999 -9999 -9999 -9999 -9999 2 11 84 20 25 43 124 206
-9999 -9999 -9999 -9999 -9999 -9999 -9999 -9999 -9999 -9999 -9999 -9999 -9999 -9999 -9999 -9999 -9999 -9999 -9999 160 98 195 342 275 131 73 100 283 174 192 214 276 113 118 67 49 43 24 25 19 21 20 14 17 36 50 67 56 27 37 72 79 136 210 288 206 218 161 159 171 141 65 40 84 76 70 77 38 48 43 46 59 95 176 121 135 246 280 208 275 323 321 337 177 123 217 237 178 147 48 38 -9999 -9999 -9999 -9999 -9999 -9999 -9999 -9999 -9999 -9999 -9999 -9999 -9999 -9999 -9999 -9999 -9999 -9999 -9999 -9999 -9999 -9999 -9999 -9999 -9999 -9999 -9999 -9999 -9999 -9999 -9999 -9999 -9999 206 312 426 395 115 -9999 -9999 -9999 -9999 -9999 -9999 -9999 -9999 -9999 -9999 -9999 -9999 -9999 -9999 143 104 59 80 54 241 208 267 253 456 442 293 441 547 333 194 94 -9999 -9999 -9999 -9999 -9999 -9999 -9999 -9999 -9999 -9999 -9999 -9999 -9999 -9999 -9999 -9999 -9999 -9999 -9999 -9999 -9999 -9999 -9999 -9999 -9999 -9999 -9999 372 -9999 156 376 305 228 321 435 386 442 498 515 206 340 319 74 119 141 238 288 363 166 186 181 402 319 476 362 286 241 372 198 286 268 46 34 37 35 29 28 44 102 127 88 68 72 57 102 106 85 71 72 81 -9999 -9999 -9999 -9999 -9999 -9999 -9999 -9999 -9999 -9999 -9999 -9999 -9999 -9999 -9999 -9999 -9999 -9999 -9999 -9999 -9999 -9999 -9999 -9999 -9999 -9999 -9999 -9999 -9999 -9999 -9999 -9999 -9999 -9999 -9999 -9999 -9999 -9999 -9999 -9999 -9999 -9999 -9999 -9999 -9999 -9999 -9999 -9999 -9999 -9999 -9999 -9999 -9999 -9999 -9999 -9999 -9999 -9999 -9999 -9999 -9999 -9999 -9999 -9999 -9999 -9999 -9999 -9999 -9999 -9999 -9999 -9999 -9999 -9999 -9999 -9999 -9999 -9999 -9999 -9999 -9999 -9999 11 75 112 148 240 190 266 281
-9999 -9999 -9999 -9999 -9999 -9999 -9999 -9999 -9999 -9999 -9999 -9999 -9999 -9999 -9999 -9999 -9999 -9999 -9999 158 199 217 299 236 200 158 104 158 102 142 155 220 100 77 87 81 36 19 18 24 21 24 42 45 60 61 51 18 23 33 62 89 59 73 196 228 205 147 121 155 146 131 134 39 34 100 90 40 64 36 61 48 62 66 134 145 155 226 101 86 106 95 97 94 137 118 172 229 47 86 88 -9999 -9999 -9999 -9999 -9999 -9999 -9999 -9999 -9999 -9999 -9999 -9999 -9999 -9999 -9999 -9999 -9999 -9999 -9999 -9999 -9999 -9999 -9999 -9999 -9999 -9999 -9999 -9999 -9999 -9999 -9999 -9999 -9999 -9999 280 362 481 -9999 -9999 -9999 -9999 -9999 -9999 -9999 -9999 -9999 -9999 -9999 -9999 -9999 -9999 -9999 -9999 -9999 37 33 22 106 227 373 299 405 337 327 334 253 256 271 188 156 71 64 -9999 -9999 -9999 -9999 -9999 -9999 -9999 -9999 -9999 -9999 -9999 -9999 -9999 -9999 -9999 -9999 -9999 -9999 -9999 -9999 -9999 -9999 -9999 -9999 109 65 107 164 351 373 322 449 241 301 456 355 273 243 189 133 103 120 178 241 139 201 181 186 422 416 165 123 226 327 275 269 203 247 343 274 140 49 28 40 55 96 131 116 87 86 68 84 98 81 77 115 78 -9999 -9999 -9999 -9999 -9999 -9999 -9999 -9999 -9999 -9999 -9999 -9999 -9999 -9999 -9999 -9999 -9999 -9999 -9999 -9999 -9999 -9999 -9999 -9999 -9999 -9999 -9999 -9999 -9999 -9999 303 293 283 336 370 469 340 317 285 227 250 165 82 -9999 -9999 -9999 -9999 -9999 -9999 -9999 -9999 -9999 -9999 -9999 -9999 -9999 -9999 -9999 -9999 -9999 -9999 -9999 -9999 -9999 -9999 -9999 -9999 -9999 -9999 -9999 -9999 -9999 -9999 -9999 -9999 -9999 -9999 -9999 -9999 -9999 -9999 -9999 -9999 76 333 625 490 493 462 479
-9999 -9999 -9999 -9999 -9999 -9999 -9999 -9999 -9999 -9999 -9999 -9999 -9999 -9999 -9999 -9999 -9999 -9999 -9999 195 148 183 264 323 156 102 184 173 144 124 144 89 76 58 32 59 44 14 11 24 44 38 11 56 58 52 40 36 48 46 36 34 59 59 69 55 64 41 77 74 214 328 156 76 50 63 79 64 84 103 80 53 37 46 41 57 57 38 41 53 84 84 138 123 118 222 384 139 53 113 -9999 -9999 -9999 -9999 -9999 -9999 -9999 -9999 -9999 -9999 -9999 -9999 -9999 -9999 -9999 -9999 -9999 -9999 -9999 -9999 -9999 -9999 -9999 -9999 -9999 -9999 -9999 -9999 -9999 -9999 -9999 -9999 -9999 -9999 149 266 330 364 -9999 -9999 -9999 -9999 -9999 -9999 -9999 -9999 -9999 -9999 -9999 -9999 -9999 -9999 -9999 -9999 -9999 -9999 28 71 161 145 144 276 483 494 467 332 322 209 199 163 166 171 87 43 38 231 207 168 286 -9999 -9999 -9999 -9999 -9999 -9999 -9999 -9999 -9999 -9999 -9999 -9999 -9999 -9999 -9999 -9999 -9999 -9999 -9999 -9999 -9999 205 136 415 434 434 376 293 283 318 406 401 343 93 78 72 167 238 227 125 242 405 501 420 478 308 156 157 153 233 204 237 248 185 132 81 76 78 115 123 48 54 37 30 40 58 75 99 145 146 105 -9999 -9999 -9999 -9999 -9999 -9999 -9999 -9999 -9999 -9999 -9999 -9999 -9999 -9999 -9999 -9999 -9999 -9999 -9999 -9999 -9999 -9999 -9999 -9999 -9999 -9999 -9999 252 333 275 292 256 148 124 129 145 235 324 262 266 248 256 305 -9999 -9999 -9999 -9999 -9999 -9999 -9999 -9999 -9999 -9999 -9999 -9999 -9999 -9999 -9999 -9999 -9999 -9999 -9999 -9999 -9999 -9999 -9999 -9999 -9999 -9999 -9999 -9999 -9999 -9999 -9999 -9999 -9999 -9999 -9999 -9999 -9999 -9999 -9999 168 392 450 452 353 298 370 326
-9999 -9999 -9999 -9999 -9999 -9999 -9999 -9999 -9999 -9999 -9999 -9999 -9999 -9999 -9999 -9999 -9999 -9999 -9999 89 81 121 143 196 240 210 211 166 91 126 129 123 76 49 47 44 35 31 44 33 33 51 65 33 62 63 60 62 68 62 89 67 44 48 38 45 43 48 45 56 81 151 110 114 52 107 112 69 71 95 77 61 58 77 50 41 37 45 100 107 67 107 147 181 172 80 133 -9999 -9999 -9999 -9999 -9999 -9999 -9999 -9999 -9999 -9999 -9999 -9999 -9999 -9999 -9999 -9999 -9999 -9999 -9999 -9999 -9999 -9999 -9999 -9999 -9999 -9999 -9999 -9999 -9999 -9999 -9999 -9999 -9999 -9999 -9999 -9999 -9999 -9999 145 306 231 -9999 -9999 -9999 -9999 -9999 -9999 -9999 -9999 -9999 -9999 -9999 -9999 -9999 -9999 -9999 -9999 -9999 -9999 -9999 36 47 293 310 282 97 180 324 434 259 250 231 128 128 159 187 53 28 37 70 -9999 -9999 -9999 -9999 -9999 -9999 -9999 -9999 -9999 -9999 -9999 -9999 -9999 -9999 -9999 -9999 -9999 -9999 -9999 -9999 -9999 -9999 40 333 402 314 358 275 438 233 301 321 229 394 320 192 137 126 166 122 246 290 161 234 230 578 389 271 278 212 133 190 256 219 193 150 147 131 128 155 167 108 51 26 21 19 25 26 26 31 61 98 61 108 -9999 -9999 -9999 -9999 -9999 -9999 -9999 -9999 -9999 -9999 -9999 -9999 -9999 -9999 -9999 -9999 -9999 -9999 -9999 -9999 -9999 -9999 -9999 93 81 158 250 279 154 172 151 182 119 95 153 235 214 301 276 394 320 179 261 318 265 110 37 10 -9999 -9999 -9999 -9999 -9999 -9999 -9999 -9999 -9999 -9999 -9999 -9999 -9999 -9999 -9999 -9999 -9999 -9999 -9999 -9999 -9999 -9999 -9999 -9999 -9999 -9999 -9999 -9999 -9999 -9999 -9999 -9999 273 332 424 536 499 347 258 320 471
-9999 -9999 -9999 -9999 -9999 -9999 -9999 -9999 -9999 -9999 -9999 -9999 -9999 -9999 -9999 -9999 -9999 -9999 -9999 31 48 84 96 133 220 206 108 130 142 165 174 134 121 62 55 41 40 47 48 47 41 32 34 20 53 52 38 26 81 72 65 41 76 115 110 73 69 46 92 80 74 99 181 218 95 79 86 68 46 56 32 31 66 83 88 90 98 132 152 135 133 157 62 143 94 -9999 -9999 -9999 -9999 -9999 -9999 -9999 -9999 -9999 -9999 -9999 -9999 -9999 -9999 -9999 -9999 -9999 -9999 -9999 -9999 -9999 -9999 -9999 -9999 -9999 -9999 -9999 -9999 -9999 -9999 -9999 -9999 -9999 -9999 -9999 -9999 -9999 -9999 -9999 -9999 -9999 -9999 -9999 -9999 -9999 -9999 -9999 -9999 -9999 -9999 -9999 -9999 -9999 -9999 -9999 -9999 -9999 -9999 -9999 -9999 -9999 -9999 -9999 -9999 9 63 239 252 297 254 232 213 427 400 273 127 172 166 140 64 25 15 15 -9999 -9999 -9999 -9999 -9999 -9999 -9999 -9999 -9999 -9999 -9999 -9999 -9999 -9999 -9999 -9999 -9999 -9999 -9999 -9999 -9999 61 121 321 374 298 240 413 338 250 274 295 63 197 269 275 212 232 232 181 337 438 375 305 208 394 190 182 211 332 309 293 223 174 151 140 121 107 119 153 110 66 44 31 24 26 26 33 30 26 22 30 56 94 59 -9999 -9999 -9999 -9999 -9999 -9999 -9999 -9999 -9999 -9999 -9999 -9999 -9999 -9999 -9999 -9999 -9999 -9999 -9999 202 164 109 180 261 440 257 78 85 127 143 171 124 119 232 223 133 155 150 148 262 238 273 275 263 266 295 -9999 -9999 -9999 -9999 -9999 -9999 -9999 -9999 -9999 -9999 -9999 -9999 -9999 -9999 -9999 -9999 -9999 -9999 -9999 -9999 -9999 -9999 -9999 -9999 -9999 -9999 -9999 -9999 -9999 -9999 -9999 -9999 334 457 587 389 456 275 311 316 273
-9999 -9999 -9999 -9999 -9999 -9999 -9999 -9999 -9999 -9999 -9999 -9999 -9999 -9999 -9999 -9999 -9999 -9999 -9999 -9999 46 102 96 199 239 178 184 183 129 157 148 112 88 101 -9999 29 38 31 36 48 20 12 13 19 25 18 20 15 32 56 144 259 123 123 73 66 38 75 74 99 98 115 117 92 122 97 68 85 51 50 56 44 57 68 123 97 175 206 280 88 119 98 103 -9999 -9999 -9999 -9999 -9999 -9999 -9999 -9999 -9999 -9999 -9999 -9999 -9999 -9999 -9999 -9999 -9999 -9999 -9999 -9999 -9999 -9999 -9999 -9999 -9999 -9999 -9999 -9999 -9999 -9999 -9999 -9999 -9999 -9999 -9999 -9999 -9999 -9999 -9999 -9999 -9999 -9999 -9999 -9999 -9999 -9999 -9999 -9999 -9999 -9999 -9999 -9999 -9999 -9999 -9999 -9999 -9999 -9999 -9999 -9999 -9999 -9999 -9999 -9999 -9999 -9999 -9999 32 -9999 -9999 -9999 204 218 121 189 233 320 129 204 153 157 178 80 57 39 64 76 67 -9999 -9999 -9999 -9999 -9999 -9999 -9999 -9999 -9999 -9999 -9999 -9999 -9999 -9999 -9999 -9999 -9999 -9999 79 82 211 271 297 415 434 229 242 298 198 41 213 243 286 273 325 234 118 -9999 296 538 426 246 286 381 379 487 205 245 322 392 201 147 254 199 172 134 190 96 85 51 32 38 52 35 25 27 21 20 25 34 40 68 48 47 58 61 -9999 -9999 -9999 -9999 -9999 -9999 -9999 -9999 -9999 -9999 -9999 -9999 -9999 93 135 185 195 275 249 308 408 209 204 207 230 171 131 147 193 172 172 168 213 357 321 223 275 200 272 169 151 187 192 -9999 13 6 6 -9999 -9999 -9999 -9999 -9999 -9999 -9999 -9999 -9999 -9999 -9999 -9999 -9999 -9999 -9999 -9999 -9999 -9999 -9999 -9999 -9999 -9999 -9999 -9999 -9999 430 645 558 453 572 508 308 451 248 179 222
-9999 -9999 -9999 -9999 -9999 -9999 -9999 -9999 -9999 -9999 -9999 -9999 -9999 -9999 -9999 -9999 -9999 -9999 -9999 -9999 58 89 146 260 312 226 229 183 153 150 145 146 29 22 19 30 23 22 19 27 22 21 27 25 31 41 29 67 216 256 251 205 209 168 97 69 54 50 64 79 108 82 98 123 73 145 83 80 137 109 62 72 86 78 73 110 151 206 56 -9999 -9999 -9999 -9999 -9999 -9999 -9999 -9999 -9999 -9999 -9999 -9999 -9999 -9999 -9999 -9999 -9999 -9999 -9999 -9999 -9999 -9999 -9999 -9999 -9999 -9999 -9999 -9999 -9999 -9999 -9999 -9999 -9999 -9999 -9999 -9999 -9999 -9999 -9999 -9999 -9999 -9999 -9999 -9999 -9999 -9999 -9999 181 106 88 -9999 -9999 -9999 -9999 -9999 -9999 -9999 -9999 -9999 -9999 -9999 -9999 -9999 -9999 -9999 -9999 -9999 -9999 -9999 -9999 -9999 -9999 -9999 -9999 -9999 -9999 83 7 60 138 283 122 109 118 112 150 121 79 90 124 119 85 64 55 47 -9999 -9999 -9999 -9999 -9999 -9999 -9999 -9999 -9999 -9999 -9999 -9999 -9999 -9999 -9999 40 138 159 185 434 410 284 -9999 253 263 334 40 175 250 279 583 404 315 65 82 88 148 180 60 251 417 297 28 135 218 241 289 156 146 129 40 67 171 170 137 85 26 34 68 53 28 42 38 51 48 50 57 -9999 80 59 57 44 61 62 43 71 80 100 69 40 40 37 97 -9999 164 134 212 327 258 221 164 266 322 315 292 253 297 315 202 287 227 310 388 418 431 250 241 316 250 400 367 156 127 137 107 122 165 228 221 221 180 157 -9999 -9999 184 -9999 -9999 -9999 -9999 -9999 -9999 -9999 -9999 -9999 226 -9999 -9999 -9999 -9999 -9999 -9999 -9999 270 323 467 589 421 449 479 502 484 402 280 214 146 160
-9999 -9999 -9999 -9999 -9999 -9999 -9999 -9999 -9999 -9999 -9999 -9999 -9999 -9999 -9999 -9999 -9999 -9999 -9999 -9999 76 119 255 248 222 86 110 83 123 102 110 69 33 32 28 27 22 36 42 26 24 40 24 16 45 41 52 135 303 232 112 200 80 84 90 74 49 44 90 75 62 62 58 54 88 89 97 138 119 95 101 130 86 144 265 175 141 -9999 -9999 -9999 -9999 -9999 -9999 -9999 -9999 -9999 -9999 -9999 -9999 -9999 -9999 -9999 -9999 -9999 -9999 -9999 -9999 -9999 -9999 -9999 -9999 -9999 -9999 -9999 -9999 -9999 -9999 -9999 -9999 -9999 -9999 -9999 -9999 -9999 -9999 -9999 -9999 -9999 -9999 -9999 -9999 -9999 -9999 -9999 -9999 193 185 210 138 -9999 -9999 -9999 -9999 -9999 -9999 -9999 -9999 -9999 -9999 -9999 -9999 -9999 -9999 -9999 -9999 -9999 -9999 -9999 -9999 -9999 -9999 -9999 -9999 -9999 -9999 -9999 47 74 142 289 276 286 180 132 151 161 155 99 68 111 76 58 88 55 64 128 -9999 -9999 -9999 -9999 -9999 -9999 -9999 -9999 -9999 -9999 -9999 -9999 -9999 29 56 61 171 324 328 255 382 377 -9999 379 87 151 415 413 132 443 319 42 52 71 119 154 243 132 44 232 473 190 -9999 -9999 7 -9999 -9999 -9999 -9999 110 142 115 82 27 29 40 53 44 52 59 102 -9999 -9999 -9999 -9999 -9999 -9999 -9999 -9999 -9999 -9999 90 55 72 90 75 76 55 49 91 197 178 262 171 224 263 307 239 212 315 205 187 134 189 209 239 257 229 286 337 363 190 305 256 303 202 254 291 365 190 145 273 209 171 258 315 239 274 253 223 183 276 232 207 311 195 171 207 213 235 471 327 424 440 307 311 207 247 205 440 483 555 567 340 480 417 460 437 383 352 116 150 129 110
-9999 -9999 -9999 -9999 -9999 -9999 -9999 -9999 -9999 -9999 -9999 -9999 -9999 -9999 -9999 -9999 -9999 -9999 -9999 -9999 43 193 189 185 90 106 95 128 76 81 58 52 51 26 31 36 56 48 52 37 69 95 137 111 83 129 208 284 406 183 97 71 67 106 69 78 124 119 112 121 96 88 82 71 142 57 114 143 148 149 127 160 190 227 253 80 14 -9999 -9999 -9999 -9999 -9999 -9999 -9999 -9999 -9999 -9999 -9999 -9999 -9999 -9999 -9999 -9999 -9999 -9999 -9999 -9999 -9999 -9999 -9999 -9999 -9999 -9999 -9999 -9999 -9999 -9999 -9999 -9999 -9999 -9999 -9999 -9999 -9999 -9999 -9999 -9999 -9999 -9999 -9999 -9999 66 32 121 112 143 203 208 151 207 -9999 -9999 -9999 -9999 -9999 -9999 -9999 -9999 -9999 -9999 -9999 -9999 -9999 -9999 -9999 -9999 -9999 -9999 -9999 -9999 -9999 -9999 -9999 -9999 -9999 -9999 -9999 -9999 -9999 290 209 350 307 347 225 217 148 165 109 100 93 55 41 39 37 52 121 92 -9999 -9999 -9999 -9999 -9999 -9999 -9999 -9999 -9999 -9999 13 41 110 190 427 363 458 205 141 293 213 278 295 126 220 234 178 9 43 36 61 110 115 191 207 233 -9999 -9999 132 -9999 -9999 246 -9999 -9999 -9999 -9999 -9999 -9999 -9999 -9999 28 89 45 71 88 125 96 224 -9999 -9999 -9999 -9999 -9999 -9999 -9999 -9999 -9999 -9999 -9999 -9999 -9999 -9999 -9999 -9999 150 119 33 20 278 381 526 344 213 261 281 218 105 136 161 184 195 182 143 171 188 226 270 143 220 263 206 225 305 293 256 171 150 154 197 423 420 191 167 381 294 185 171 246 238 180 340 365 341 442 385 316 417 477 370 329 263 429 438 438 521 502 625 520 372 336 408 650 670 481 460 366 366 333 269 182 216 181
-9999 -9999 -9999 -9999 -9999 -9999 -9999 -9999 -9999 -9999 -9999 -9999 -9999 -9999 -9999 -9999 -9999 -9999 -9999 9 22 84 202 194 68 82 117 258 146 46 55 43 45 90 171 117 114 43 57 78 132 198 155 153 141 180 215 156 152 58 37 47 90 87 77 122 113 115 150 97 129 111 89 130 117 65 151 71 154 213 138 99 195 161 67 -9999 -9999 -9999 -9999 -9999 -9999 -9999 -9999 -9999 -9999 -9999 -9999 -9999 -9999 -9999 -9999 -9999 -9999 -9999 -9999 -9999 -9999 -9999 -9999 -9999 -9999 -9999 -9999 -9999 -9999 -9999 -9999 -9999 -9999 -9999 -9999 -9999 -9999 -9999 -9999 -9999 -9999 -9999 -9999 -9999 -9999 -9999 130 117 86 115 190 89 205 230 101 -9999 -9999 -9999 -9999 -9999 -9999 -9999 -9999 -9999 -9999 -9999 -9999 -9999 -9999 -9999 -9999 -9999 -9999 -9999 -9999 -9999 -9999 -9999 -9999 -9999 -9999 -9999 -9999 -9999 -9999 46 186 414 267 172 200 166 177 147 140 111 128 107 130 140 118 43 26 19 -9999 -9999 -9999 -9999 -9999 -9999 -9999 -9999 -9999 88 132 180 379 411 326 187 209 215 252 211 326 132 151 244 488 68 34 12 1 -9999 234 213 117 192 261 -9999 -9999 -9999 -9999 -9999 -9999 -9999 -9999 -9999 -9999 -9999 -9999 -9999 -9999 -9999 -9999 -9999 -9999 76 -9999 -9999 -9999 -9999 -9999 -9999 -9999 -9999 -9999 -9999 -9999 279 276 227 196 158 216 280 321 320 337 458 381 386 294 285 209 184 186 241 152 120 139 144 202 132 91 155 194 132 116 154 156 169 87 114 213 102 105 118 172 153 160 221 198 274 276 379 319 291 268 132 245 216 249 234 357 350 347 298 192 218 375 330 365 283 232 358 208 496 360 405 360 360 366 496 422 394 372 288 413 318 356 298 243 142
-9999 -9999 -9999 -9999 -9999 -9999 -9999 -9999 -9999 -9999 -9999 -9999 -9999 -9999 -9999 -9999 -9999 -9999 -9999 18 20 100 101 52 75 231 340 220 150 43 53 78 44 182 235 228 121 324 216 231 260 170 238 296 272 139 134 93 41 42 43 67 55 72 113 77 111 64 124 157 114 80 137 117 61 100 115 128 125 133 185 186 146 106 70 -9999 -9999 -9999 -9999 -9999 -9999 -9999 -9999 -9999 -9999 -9999 -9999 -9999 -9999 -9999 -9999 -9999 -9999 -9999 -9999 -9999 -9999 -9999 -9999 -9999 -9999 -9999 -9999 -9999 -9999 -9999 -9999 -9999 -9999 -9999 -9999 -9999 -9999 -9999 -9999 -9999 -9999 -9999 -9999 -9999 -9999 -9999 238 96 126 202 228 128 216 224 110 -9999 -9999 -9999 -9999 -9999 -9999 -9999 -9999 -9999 -9999 -9999 -9999 -9999 -9999 -9999 -9999 -9999 -9999 -9999 -9999 -9999 -9999 -9999 -9999 -9999 -9999 -9999 -9999 -9999 -9999 -9999 250 242 294 276 275 218 204 195 79 90 48 -9999 -9999 9 38 24 10 10 13 15 -9999 -9999 -9999 -9999 -9999 -9999 -9999 237 419 223 356 210 244 240 380 253 188 97 219 294 150 283 387 290 116 65 -9999 51 96 173 174 216 208 -9999 -9999 -9999 -9999 -9999 -9999 -9999 -9999 -9999 -9999 396 -9999 -9999 -9999 -9999 92 74 -9999 -9999 50 47 -9999 -9999 -9999 -9999 -9999 -9999 -9999 -9999 -9999 -9999 -9999 283 269 -9999 237 261 172 230 220 213 217 160 193 164 159 263 244 273 130 192 154 245 200 158 177 131 283 154 81 65 44 106 246 172 127 215 228 260 249 175 238 240 202 213 266 338 253 251 317 308 308 297 184 286 245 302 308 289 221 320 352 261 290 230 243 243 347 313 305 310 291 405 458 319 339 317 250 276 330 324 215 167 125 83
-9999 -9999 -9999 -9999 -9999 -9999 -9999 -9999 -9999 -9999 -9999 -9999 -9999 -9999 -9999 -9999 -9999 -9999 -9999 25 37 110 85 119 230 222 438 101 83 144 243 189 247 172 102 -9999 332 447 321 434 448 478 496 271 159 148 74 33 39 27 44 78 64 73 109 89 84 69 98 153 109 137 103 134 135 175 124 184 224 222 256 185 169 120 -9999 -9999 -9999 -9999 -9999 -9999 -9999 -9999 -9999 -9999 -9999 -9999 -9999 -9999 -9999 -9999 -9999 -9999 -9999 -9999 -9999 -9999 -9999 -9999 -9999 -9999 -9999 -9999 -9999 -9999 -9999 -9999 -9999 -9999 -9999 -9999 -9999 -9999 -9999 -9999 -9999 -9999 -9999 -9999 -9999 -9999 -9999 -9999 -9999 183 128 218 124 179 303 251 -9999 -9999 -9999 -9999 -9999 -9999 -9999 -9999 -9999 -9999 -9999 -9999 -9999 -9999 -9999 -9999 -9999 -9999 -9999 -9999 -9999 -9999 -9999 -9999 -9999 -9999 -9999 -9999 -9999 -9999 -9999 -9999 205 284 348 260 200 256 182 172 163 73 -9999 -9999 -9999 -9999 -9999 -9999 -9999 -9999 11 20 21 -9999 -9999 -9999 -9999 -9999 -9999 471 440 369 440 442 344 177 347 319 190 83 67 272 221 180 483 479 105 -9999 -9999 -9999 -9999 -9999 -9999 -9999 -9999 -9999 -9999 256 -9999 -9999 -9999 -9999 -9999 -9999 -9999 -9999 -9999 -9999 -9999 -9999 66 126 119 134 63 92 140 104 59 46 38 120 133 57 60 65 122 238 148 76 142 132 141 178 126 112 153 188 168 209 205 201 296 282 255 267 162 174 120 130 116 191 165 119 147 174 69 101 192 107 80 118 163 202 195 164 150 123 290 352 324 267 228 330 383 354 305 307 414 335 361 217 243 240 231 186 347 232 184 175 197 122 84 146 201 233 204 163 198 214 323 355 212 280 235 177 205 244 300 282
-9999 -9999 -9999 -9999 -9999 -9999 -9999 -9999 -9999 -9999 -9999 -9999 -9999 -9999 -9999 -9999 -9999 -9999 -9999 35 89 79 283 172 167 164 167 114 33 65 74 111 41 69 58 107 258 339 312 181 47 58 70 213 78 32 29 37 46 48 51 84 70 75 78 50 83 77 78 125 101 123 105 129 147 259 214 109 147 189 208 123 152 -9999 -9999 -9999 -9999 -9999 -9999 -9999 -9999 -9999 -9999 -9999 -9999 -9999 -9999 -9999 -9999 -9999 -9999 -9999 -9999 -9999 -9999 -9999 -9999 -9999 -9999 -9999 -9999 -9999 -9999 -9999 -9999 -9999 -9999 -9999 -9999 -9999 -9999 -9999 -9999 -9999 -9999 -9999 -9999 -9999 -9999 -9999 -9999 -9999 -9999 265 109 171 207 237 138 270 -9999 -9999 -9999 -9999 -9999 -9999 -9999 -9999 -9999 -9999 -9999 -9999 -9999 -9999 -9999 -9999 -9999 -9999 -9999 -9999 -9999 -9999 -9999 -9999 -9999 -9999 -9999 -9999 -9999 -9999 -9999 -9999 -9999 -9999 218 -9999 345 243 181 279 187 181 -9999 -9999 -9999 -9999 -9999 -9999 -9999 -9999 39 23 39 -9999 -9999 -9999 -9999 -9999 -9999 -9999 -9999 424 431 510 488 296 343 432 244 157 84 107 212 256 311 477 699 -9999 -9999 -9999 -9999 -9999 50 -9999 -9999 199 -9999 -9999 -9999 -9999 -9999 -9999 -9999 -9999 -9999 -9999 -9999 -9999 -9999 61 120 136 113 109 90 131 156 148 135 87 45 33 52 189 177 200 383 558 322 123 155 180 163 248 241 335 346 259 258 279 105 93 167 181 166 143 136 75 140 91 134 201 225 142 103 152 91 141 230 130 130 76 106 255 170 153 186 197 144 131 92 193 99 178 161 186 221 182 135 277 337 361 344 228 250 330 374 237 230 144 129 153 179 177 274 209 208 261 295 377 257 437 268 242 145 133 190 197 231 323
